ply
format ascii 1.0
comment
element vertex 1273
property float32 x
property float32 y
property float32 z
property float intensity
element face 0
property list uchar int vertex_indices
end_header
-24.338068 31.639488 694.000000 0.85
-24.338068 32.856391 694.000000 0.85
-24.408206 34.171489 696.000000 0.85
-24.443275 35.442749 697.000000 0.85
-24.443275 36.664913 697.000000 0.85
-24.478345 37.941434 698.000000 0.85
-24.478345 39.165352 698.000000 0.85
-24.548483 40.504997 700.000000 0.85
-24.583553 41.792039 701.000000 0.85
-24.583553 43.021217 701.000000 0.85
-24.653691 44.376644 703.000000 0.85
-24.653691 45.609328 703.000000 0.85
-24.688760 46.908645 704.000000 0.85
-24.758899 48.279853 706.000000 0.85
-24.793968 49.587936 707.000000 0.85
-24.899176 51.043311 710.000000 0.85
-24.934245 52.361915 711.000000 0.85
-25.039453 53.834824 714.000000 0.85
-25.039453 55.086796 714.000000 0.85
-25.109591 56.496581 716.000000 0.85
-25.109591 57.752060 716.000000 0.85
-25.249868 59.337191 720.000000 0.85
-37.513589 -31.590391 1126.000000 0.85
-24.054007 -18.990005 722.000000 0.85
-23.987375 -17.674908 720.000000 0.85
-23.954059 -16.389619 719.000000 0.85
-23.954059 -15.128880 719.000000 0.85
-23.887428 -13.829563 717.000000 0.85
-23.854112 -12.554796 716.000000 0.85
-23.854112 -11.299316 716.000000 0.85
-23.787480 -10.015781 714.000000 0.85
-23.787480 -8.763809 714.000000 0.85
-23.754164 -7.501315 713.000000 0.85
-23.754164 -6.251096 713.000000 0.85
-23.254427 -4.895669 698.000000 0.85
-23.254427 -3.671752 698.000000 0.85
-23.221112 -2.444328 697.000000 0.85
-23.187796 -1.220410 696.000000 0.85
-23.121164 0.000000 694.000000 0.85
-23.121164 1.216903 694.000000 0.85
-23.087849 2.430300 693.000000 0.85
-23.087849 3.645450 693.000000 0.85
-23.087849 4.860600 693.000000 0.85
-23.021217 6.058215 691.000000 0.85
-23.021217 7.269858 691.000000 0.85
-23.021217 8.481501 691.000000 0.85
-23.021217 9.693144 691.000000 0.85
-23.021217 10.904787 691.000000 0.85
-23.021217 12.116430 691.000000 0.85
-22.987901 13.308785 690.000000 0.85
-22.987901 14.518674 690.000000 0.85
-23.021217 15.751359 691.000000 0.85
-23.021217 16.963002 691.000000 0.85
-23.021217 18.174645 691.000000 0.85
-23.021217 19.386288 691.000000 0.85
-23.021217 20.597931 691.000000 0.85
-23.021217 21.809574 691.000000 0.85
-23.021217 23.021217 691.000000 0.85
-23.021217 24.232860 691.000000 0.85
-23.021217 25.444503 691.000000 0.85
-23.087849 26.733298 693.000000 0.85
-23.087849 27.948448 693.000000 0.85
-23.087849 29.163598 693.000000 0.85
-23.121164 30.422585 694.000000 0.85
-23.121164 31.639488 694.000000 0.85
-23.121164 32.856391 694.000000 0.85
-23.187796 34.171489 696.000000 0.85
-23.221112 35.442749 697.000000 0.85
-23.221112 36.664913 697.000000 0.85
-23.254427 37.941434 698.000000 0.85
-23.254427 39.165352 698.000000 0.85
-23.321059 40.504997 700.000000 0.85
-23.354375 41.792039 701.000000 0.85
-23.354375 43.021217 701.000000 0.85
-23.421006 44.376644 703.000000 0.85
-23.421006 45.609328 703.000000 0.85
-23.454322 46.908645 704.000000 0.85
-23.454322 48.143083 704.000000 0.85
-23.554270 49.587936 707.000000 0.85
-23.654217 51.043311 710.000000 0.85
-23.687533 52.361915 711.000000 0.85
-23.787480 53.834824 714.000000 0.85
-23.787480 55.086796 714.000000 0.85
-23.854112 56.496581 716.000000 0.85
-23.854112 57.752060 716.000000 0.85
-23.987375 59.337191 720.000000 0.85
-35.539190 -31.590391 1126.000000 0.85
-22.788006 -18.990005 722.000000 0.85
-22.724882 -17.674908 720.000000 0.85
-22.693319 -16.389619 719.000000 0.85
-22.693319 -15.128880 719.000000 0.85
-22.630195 -13.829563 717.000000 0.85
-22.598632 -12.554796 716.000000 0.85
-22.598632 -11.299316 716.000000 0.85
-22.535508 -10.015781 714.000000 0.85
-22.535508 -8.763809 714.000000 0.85
-22.535508 -7.511836 714.000000 0.85
-22.535508 -6.259863 714.000000 0.85
-22.535508 -5.007891 714.000000 0.85
-22.030510 -3.671752 698.000000 0.85
-21.998948 -2.444328 697.000000 0.85
-21.967386 -1.220410 696.000000 0.85
-21.904261 0.000000 694.000000 0.85
-21.904261 1.216903 694.000000 0.85
-21.872699 2.430300 693.000000 0.85
-21.872699 3.645450 693.000000 0.85
-21.872699 4.860600 693.000000 0.85
-21.872699 6.075750 693.000000 0.85
-21.809574 7.269858 691.000000 0.85
-21.809574 8.481501 691.000000 0.85
-21.809574 9.693144 691.000000 0.85
-21.809574 10.904787 691.000000 0.85
-21.809574 12.116430 691.000000 0.85
-21.778012 13.308785 690.000000 0.85
-21.778012 14.518674 690.000000 0.85
-21.809574 15.751359 691.000000 0.85
-21.809574 16.963002 691.000000 0.85
-21.809574 18.174645 691.000000 0.85
-21.809574 19.386288 691.000000 0.85
-21.809574 20.597931 691.000000 0.85
-21.809574 21.809574 691.000000 0.85
-21.809574 23.021217 691.000000 0.85
-21.809574 24.232860 691.000000 0.85
-21.809574 25.444503 691.000000 0.85
-21.872699 26.733298 693.000000 0.85
-21.872699 27.948448 693.000000 0.85
-21.872699 29.163598 693.000000 0.85
-21.904261 30.422585 694.000000 0.85
-21.904261 31.639488 694.000000 0.85
-21.967386 32.951078 696.000000 0.85
-21.967386 34.171489 696.000000 0.85
-21.998948 35.442749 697.000000 0.85
-21.998948 36.664913 697.000000 0.85
-22.030510 37.941434 698.000000 0.85
-22.030510 39.165352 698.000000 0.85
-22.030510 40.389269 698.000000 0.85
-22.093635 41.732422 700.000000 0.85
-22.125197 43.021217 701.000000 0.85
-22.125197 44.250395 701.000000 0.85
-22.188322 45.609328 703.000000 0.85
-22.188322 46.842013 703.000000 0.85
-22.219884 48.143083 704.000000 0.85
-22.314571 49.587936 707.000000 0.85
-22.346134 50.899527 708.000000 0.85
-22.440821 52.361915 711.000000 0.85
-22.503945 53.759425 713.000000 0.85
-22.535508 55.086796 714.000000 0.85
-22.535508 56.338769 714.000000 0.85
-22.535508 57.590742 714.000000 0.85
-22.630195 59.089953 717.000000 0.85
-33.684026 -31.702613 1130.000000 0.85
-21.671050 -19.121515 727.000000 0.85
-21.462388 -17.674908 720.000000 0.85
-21.462388 -16.412415 720.000000 0.85
-21.432579 -15.128880 719.000000 0.85
-21.372962 -13.829563 717.000000 0.85
-21.372962 -12.572330 717.000000 0.85
-21.343153 -11.299316 716.000000 0.85
-21.283535 -10.015781 714.000000 0.85
-21.283535 -8.763809 714.000000 0.85
-21.283535 -7.511836 714.000000 0.85
-21.283535 -6.259863 714.000000 0.85
-21.283535 -5.007891 714.000000 0.85
-21.343153 -3.766439 716.000000 0.85
-20.806593 -2.447834 698.000000 0.85
-20.776784 -1.222164 697.000000 0.85
-20.746975 0.000000 696.000000 0.85
-20.746975 1.220410 696.000000 0.85
-20.687358 2.433807 694.000000 0.85
-20.687358 3.650710 694.000000 0.85
-20.687358 4.867614 694.000000 0.85
-20.687358 6.084517 694.000000 0.85
-20.657549 7.290900 693.000000 0.85
-20.657549 8.506049 693.000000 0.85
-20.657549 9.721199 693.000000 0.85
-20.657549 10.936349 693.000000 0.85
-20.657549 12.151499 693.000000 0.85
-20.597931 13.328073 691.000000 0.85
-20.597931 14.539716 691.000000 0.85
-20.597931 15.751359 691.000000 0.85
-20.597931 16.963002 691.000000 0.85
-20.597931 18.174645 691.000000 0.85
-20.597931 19.386288 691.000000 0.85
-20.597931 20.597931 691.000000 0.85
-20.657549 21.872699 693.000000 0.85
-20.657549 23.087849 693.000000 0.85
-20.657549 24.302998 693.000000 0.85
-20.657549 25.518148 693.000000 0.85
-20.687358 26.771874 694.000000 0.85
-20.687358 27.988778 694.000000 0.85
-20.687358 29.205681 694.000000 0.85
-20.746975 30.510258 696.000000 0.85
-20.746975 31.730668 696.000000 0.85
-20.746975 32.951078 696.000000 0.85
-20.776784 34.220586 697.000000 0.85
-20.776784 35.442749 697.000000 0.85
-20.776784 36.664913 697.000000 0.85
-20.806593 37.941434 698.000000 0.85
-20.806593 39.165352 698.000000 0.85
-20.806593 40.389269 698.000000 0.85
-20.866211 41.732422 700.000000 0.85
-20.896020 43.021217 701.000000 0.85
-20.896020 44.250395 701.000000 0.85
-20.955637 45.609328 703.000000 0.85
-20.955637 46.842013 703.000000 0.85
-21.045064 48.279853 706.000000 0.85
-21.074873 49.587936 707.000000 0.85
-21.104682 50.899527 708.000000 0.85
-21.194108 52.361915 711.000000 0.85
-21.253726 53.759425 713.000000 0.85
-21.283535 55.086796 714.000000 0.85
-21.283535 56.338769 714.000000 0.85
-21.283535 57.590742 714.000000 0.85
-21.372962 59.089953 717.000000 0.85
-31.702613 -31.702613 1130.000000 0.85
-20.396283 -19.121515 727.000000 0.85
-20.284061 -17.748553 723.000000 0.85
-20.256006 -16.458005 722.000000 0.85
-20.256006 -15.192004 722.000000 0.85
-20.199895 -13.887428 720.000000 0.85
-20.199895 -12.624934 720.000000 0.85
-20.171839 -11.346660 719.000000 0.85
-20.115729 -10.057864 717.000000 0.85
-20.115729 -8.800631 717.000000 0.85
-20.087673 -7.532877 716.000000 0.85
-20.087673 -6.277398 716.000000 0.85
-20.087673 -5.021918 716.000000 0.85
-20.087673 -3.766439 716.000000 0.85
-19.582676 -2.447834 698.000000 0.85
-19.554620 -1.222164 697.000000 0.85
-19.526565 0.000000 696.000000 0.85
-19.526565 1.220410 696.000000 0.85
-19.470454 2.433807 694.000000 0.85
-19.470454 3.650710 694.000000 0.85
-19.470454 4.867614 694.000000 0.85
-19.470454 6.084517 694.000000 0.85
-19.442399 7.290900 693.000000 0.85
-19.442399 8.506049 693.000000 0.85
-19.442399 9.721199 693.000000 0.85
-19.442399 10.936349 693.000000 0.85
-19.442399 12.151499 693.000000 0.85
-19.386288 13.328073 691.000000 0.85
-19.386288 14.539716 691.000000 0.85
-19.386288 15.751359 691.000000 0.85
-19.386288 16.963002 691.000000 0.85
-19.386288 18.174645 691.000000 0.85
-19.386288 19.386288 691.000000 0.85
-19.386288 20.597931 691.000000 0.85
-19.386288 21.809574 691.000000 0.85
-19.442399 23.087849 693.000000 0.85
-19.442399 24.302998 693.000000 0.85
-19.442399 25.518148 693.000000 0.85
-19.442399 26.733298 693.000000 0.85
-19.470454 27.988778 694.000000 0.85
-19.470454 29.205681 694.000000 0.85
-19.470454 30.422585 694.000000 0.85
-19.526565 31.730668 696.000000 0.85
-19.526565 32.951078 696.000000 0.85
-19.554620 34.220586 697.000000 0.85
-19.554620 35.442749 697.000000 0.85
-19.582676 36.717517 698.000000 0.85
-19.582676 37.941434 698.000000 0.85
-19.638787 39.277573 700.000000 0.85
-19.638787 40.504997 700.000000 0.85
-19.666842 41.792039 701.000000 0.85
-19.666842 43.021217 701.000000 0.85
-19.722953 44.376644 703.000000 0.85
-19.751008 45.674207 704.000000 0.85
-19.751008 46.908645 704.000000 0.85
-19.807119 48.279853 706.000000 0.85
-19.863230 49.658075 708.000000 0.85
-19.919341 51.043311 710.000000 0.85
-19.947396 52.361915 711.000000 0.85
-20.003507 53.759425 713.000000 0.85
-20.031562 55.086796 714.000000 0.85
-20.087673 56.496581 716.000000 0.85
-20.087673 57.752060 716.000000 0.85
-20.087673 59.007540 716.000000 0.85
-29.721199 -31.702613 1130.000000 0.85
-19.121515 -19.121515 727.000000 0.85
-19.016307 -17.748553 723.000000 0.85
-18.990005 -16.458005 722.000000 0.85
-18.990005 -15.192004 722.000000 0.85
-18.937401 -13.887428 720.000000 0.85
-18.937401 -12.624934 720.000000 0.85
-18.937401 -11.362441 720.000000 0.85
-18.911099 -10.085920 719.000000 0.85
-18.858496 -8.800631 717.000000 0.85
-18.858496 -7.543398 717.000000 0.85
-18.858496 -6.286165 717.000000 0.85
-18.858496 -5.028932 717.000000 0.85
-18.858496 -3.771699 717.000000 0.85
-18.358759 -2.447834 698.000000 0.85
-18.332457 -1.222164 697.000000 0.85
-18.306155 0.000000 696.000000 0.85
-18.306155 1.220410 696.000000 0.85
-18.253551 2.433807 694.000000 0.85
-18.253551 3.650710 694.000000 0.85
-18.253551 4.867614 694.000000 0.85
-18.253551 6.084517 694.000000 0.85
-18.227249 7.290900 693.000000 0.85
-18.227249 8.506049 693.000000 0.85
-18.253551 9.735227 694.000000 0.85
-18.227249 10.936349 693.000000 0.85
-18.227249 12.151499 693.000000 0.85
-18.227249 13.366649 693.000000 0.85
-18.227249 14.581799 693.000000 0.85
-18.227249 15.796949 693.000000 0.85
-18.174645 16.963002 691.000000 0.85
-18.174645 18.174645 691.000000 0.85
-18.174645 19.386288 691.000000 0.85
-18.174645 20.597931 691.000000 0.85
-18.174645 21.809574 691.000000 0.85
-18.227249 23.087849 693.000000 0.85
-18.227249 24.302998 693.000000 0.85
-18.227249 25.518148 693.000000 0.85
-18.227249 26.733298 693.000000 0.85
-18.253551 27.988778 694.000000 0.85
-18.253551 29.205681 694.000000 0.85
-18.253551 30.422585 694.000000 0.85
-18.306155 31.730668 696.000000 0.85
-18.306155 32.951078 696.000000 0.85
-18.306155 34.171489 696.000000 0.85
-18.332457 35.442749 697.000000 0.85
-18.358759 36.717517 698.000000 0.85
-18.358759 37.941434 698.000000 0.85
-18.411362 39.277573 700.000000 0.85
-18.411362 40.504997 700.000000 0.85
-18.411362 41.732422 700.000000 0.85
-18.437664 43.021217 701.000000 0.85
-18.490268 44.376644 703.000000 0.85
-18.516570 45.674207 704.000000 0.85
-18.516570 46.908645 704.000000 0.85
-18.569174 48.279853 706.000000 0.85
-18.621778 49.658075 708.000000 0.85
-18.674382 51.043311 710.000000 0.85
-18.700684 52.361915 711.000000 0.85
-18.753288 53.759425 713.000000 0.85
-18.753288 55.009644 713.000000 0.85
-18.779590 56.338769 714.000000 0.85
-18.779590 57.590742 714.000000 0.85
-18.832194 59.007540 716.000000 0.85
-27.739786 -31.702613 1130.000000 0.85
-17.846747 -19.121515 727.000000 0.85
-17.797650 -17.797650 725.000000 0.85
-17.748553 -16.480800 723.000000 0.85
-17.724005 -15.192004 722.000000 0.85
-17.674908 -13.887428 720.000000 0.85
-17.674908 -12.624934 720.000000 0.85
-17.724005 -11.394003 722.000000 0.85
-17.674908 -10.099947 720.000000 0.85
-17.650359 -8.825180 719.000000 0.85
-17.650359 -7.564440 719.000000 0.85
-17.650359 -6.303700 719.000000 0.85
-17.650359 -5.042960 719.000000 0.85
-17.674908 -3.787480 720.000000 0.85
-17.134841 -2.447834 698.000000 0.85
-17.085744 -1.220410 696.000000 0.85
-17.085744 0.000000 696.000000 0.85
-17.085744 1.220410 696.000000 0.85
-17.036647 2.433807 694.000000 0.85
-17.036647 3.650710 694.000000 0.85
-17.036647 4.867614 694.000000 0.85
-17.036647 6.084517 694.000000 0.85
-17.012099 7.290900 693.000000 0.85
-17.012099 8.506049 693.000000 0.85
-17.012099 9.721199 693.000000 0.85
-17.012099 10.936349 693.000000 0.85
-17.012099 12.151499 693.000000 0.85
-16.963002 13.328073 691.000000 0.85
-16.963002 14.539716 691.000000 0.85
-16.963002 15.751359 691.000000 0.85
-16.963002 16.963002 691.000000 0.85
-16.963002 18.174645 691.000000 0.85
-16.963002 19.386288 691.000000 0.85
-16.963002 20.597931 691.000000 0.85
-16.963002 21.809574 691.000000 0.85
-17.012099 23.087849 693.000000 0.85
-17.012099 24.302998 693.000000 0.85
-17.012099 25.518148 693.000000 0.85
-17.012099 26.733298 693.000000 0.85
-17.036647 27.988778 694.000000 0.85
-17.036647 29.205681 694.000000 0.85
-17.036647 30.422585 694.000000 0.85
-17.085744 31.730668 696.000000 0.85
-17.085744 32.951078 696.000000 0.85
-17.085744 34.171489 696.000000 0.85
-17.110293 35.442749 697.000000 0.85
-17.134841 36.717517 698.000000 0.85
-17.134841 37.941434 698.000000 0.85
-17.134841 39.165352 698.000000 0.85
-17.183938 40.504997 700.000000 0.85
-17.183938 41.732422 700.000000 0.85
-17.208487 43.021217 701.000000 0.85
-17.257584 44.376644 703.000000 0.85
-17.282132 45.674207 704.000000 0.85
-17.331229 47.041908 706.000000 0.85
-17.355778 48.348238 707.000000 0.85
-17.380326 49.658075 708.000000 0.85
-17.429423 51.043311 710.000000 0.85
-17.453972 52.361915 711.000000 0.85
-17.453972 53.608627 711.000000 0.85
-17.503069 55.009644 713.000000 0.85
-17.527617 56.338769 714.000000 0.85
-17.527617 57.590742 714.000000 0.85
-17.527617 58.842714 714.000000 0.85
-25.849553 -31.814834 1134.000000 0.85
-16.526390 -19.068911 725.000000 0.85
-16.526390 -17.797650 725.000000 0.85
-16.480800 -16.480800 723.000000 0.85
-16.480800 -15.213046 723.000000 0.85
-16.480800 -13.945292 723.000000 0.85
-16.480800 -12.677538 723.000000 0.85
-16.480800 -11.409784 723.000000 0.85
-16.458005 -10.128003 722.000000 0.85
-16.412415 -8.837454 720.000000 0.85
-16.412415 -7.574961 720.000000 0.85
-16.389619 -6.303700 719.000000 0.85
-16.389619 -5.042960 719.000000 0.85
-16.412415 -3.787480 720.000000 0.85
-15.865334 -2.440821 696.000000 0.85
-15.865334 -1.220410 696.000000 0.85
-15.865334 0.000000 696.000000 0.85
-15.865334 1.220410 696.000000 0.85
-15.819744 2.433807 694.000000 0.85
-15.819744 3.650710 694.000000 0.85
-15.819744 4.867614 694.000000 0.85
-15.819744 6.084517 694.000000 0.85
-15.796949 7.290900 693.000000 0.85
-15.796949 8.506049 693.000000 0.85
-15.796949 9.721199 693.000000 0.85
-15.796949 10.936349 693.000000 0.85
-15.796949 12.151499 693.000000 0.85
-15.751359 13.328073 691.000000 0.85
-15.751359 14.539716 691.000000 0.85
-15.751359 15.751359 691.000000 0.85
-15.751359 16.963002 691.000000 0.85
-15.751359 18.174645 691.000000 0.85
-15.751359 19.386288 691.000000 0.85
-15.751359 20.597931 691.000000 0.85
-15.796949 21.872699 693.000000 0.85
-15.796949 23.087849 693.000000 0.85
-15.796949 24.302998 693.000000 0.85
-15.796949 25.518148 693.000000 0.85
-15.796949 26.733298 693.000000 0.85
-15.819744 27.988778 694.000000 0.85
-15.819744 29.205681 694.000000 0.85
-15.819744 30.422585 694.000000 0.85
-15.819744 31.639488 694.000000 0.85
-15.865334 32.951078 696.000000 0.85
-15.865334 34.171489 696.000000 0.85
-15.888129 35.442749 697.000000 0.85
-15.910924 36.717517 698.000000 0.85
-15.910924 37.941434 698.000000 0.85
-15.910924 39.165352 698.000000 0.85
-15.956514 40.504997 700.000000 0.85
-15.956514 41.732422 700.000000 0.85
-15.979309 43.021217 701.000000 0.85
-16.024899 44.376644 703.000000 0.85
-16.047694 45.674207 704.000000 0.85
-16.093284 47.041908 706.000000 0.85
-16.116079 48.348238 707.000000 0.85
-16.138874 49.658075 708.000000 0.85
-16.184464 51.043311 710.000000 0.85
-16.184464 52.288269 710.000000 0.85
-16.207259 53.608627 711.000000 0.85
-16.252849 55.009644 713.000000 0.85
-16.275644 56.338769 714.000000 0.85
-16.275644 57.590742 714.000000 0.85
-16.275644 58.842714 714.000000 0.85
-23.861126 -31.814834 1134.000000 0.85
-15.297212 -19.121515 727.000000 0.85
-15.297212 -17.846747 727.000000 0.85
-15.255129 -16.526390 725.000000 0.85
-15.213046 -15.213046 723.000000 0.85
-15.213046 -13.945292 723.000000 0.85
-15.213046 -12.677538 723.000000 0.85
-15.213046 -11.409784 723.000000 0.85
-15.192004 -10.128003 722.000000 0.85
-15.192004 -8.862002 722.000000 0.85
-15.149921 -7.574961 720.000000 0.85
-15.149921 -6.312467 720.000000 0.85
-15.149921 -5.049974 720.000000 0.85
-15.149921 -3.787480 720.000000 0.85
-14.644924 -2.440821 696.000000 0.85
-14.644924 -1.220410 696.000000 0.85
-14.644924 0.000000 696.000000 0.85
-14.644924 1.220410 696.000000 0.85
-14.602841 2.433807 694.000000 0.85
-14.602841 3.650710 694.000000 0.85
-14.602841 4.867614 694.000000 0.85
-14.602841 6.084517 694.000000 0.85
-14.581799 7.290900 693.000000 0.85
-14.581799 8.506049 693.000000 0.85
-14.581799 9.721199 693.000000 0.85
-14.581799 10.936349 693.000000 0.85
-14.581799 12.151499 693.000000 0.85
-14.539716 13.328073 691.000000 0.85
-14.539716 14.539716 691.000000 0.85
-14.539716 15.751359 691.000000 0.85
-14.581799 17.012099 693.000000 0.85
-14.581799 18.227249 693.000000 0.85
-14.581799 19.442399 693.000000 0.85
-14.581799 20.657549 693.000000 0.85
-14.581799 21.872699 693.000000 0.85
-14.581799 23.087849 693.000000 0.85
-14.581799 24.302998 693.000000 0.85
-14.581799 25.518148 693.000000 0.85
-14.581799 26.733298 693.000000 0.85
-14.581799 27.948448 693.000000 0.85
-14.602841 29.205681 694.000000 0.85
-14.602841 30.422585 694.000000 0.85
-14.602841 31.639488 694.000000 0.85
-14.602841 32.856391 694.000000 0.85
-14.644924 34.171489 696.000000 0.85
-14.665965 35.442749 697.000000 0.85
-14.665965 36.664913 697.000000 0.85
-14.687007 37.941434 698.000000 0.85
-14.687007 39.165352 698.000000 0.85
-14.729090 40.504997 700.000000 0.85
-14.729090 41.732422 700.000000 0.85
-14.750132 43.021217 701.000000 0.85
-14.792215 44.376644 703.000000 0.85
-14.813256 45.674207 704.000000 0.85
-14.855339 47.041908 706.000000 0.85
-14.876381 48.348238 707.000000 0.85
-14.897422 49.658075 708.000000 0.85
-14.939506 51.043311 710.000000 0.85
-14.939506 52.288269 710.000000 0.85
-14.960547 53.608627 711.000000 0.85
-15.002630 55.009644 713.000000 0.85
-15.023672 56.338769 714.000000 0.85
-15.023672 57.590742 714.000000 0.85
-15.065755 59.007540 716.000000 0.85
-14.041732 -19.147817 728.000000 0.85
-14.041732 -17.871296 728.000000 0.85
-14.022444 -16.571980 727.000000 0.85
-13.983868 -15.255129 725.000000 0.85
-13.945292 -13.945292 723.000000 0.85
-13.945292 -12.677538 723.000000 0.85
-13.945292 -11.409784 723.000000 0.85
-13.945292 -10.142031 723.000000 0.85
-13.926004 -8.862002 722.000000 0.85
-13.926004 -7.596002 722.000000 0.85
-13.887428 -6.312467 720.000000 0.85
-13.887428 -5.049974 720.000000 0.85
-13.926004 -3.798001 722.000000 0.85
-13.424513 -2.440821 696.000000 0.85
-13.424513 -1.220410 696.000000 0.85
-13.424513 0.000000 696.000000 0.85
-13.424513 1.220410 696.000000 0.85
-13.385937 2.433807 694.000000 0.85
-13.385937 3.650710 694.000000 0.85
-13.385937 4.867614 694.000000 0.85
-13.385937 6.084517 694.000000 0.85
-13.366649 7.290900 693.000000 0.85
-13.366649 8.506049 693.000000 0.85
-13.366649 9.721199 693.000000 0.85
-13.328073 10.904787 691.000000 0.85
-13.328073 12.116430 691.000000 0.85
-13.328073 13.328073 691.000000 0.85
-13.328073 14.539716 691.000000 0.85
-13.328073 15.751359 691.000000 0.85
-13.328073 16.963002 691.000000 0.85
-13.328073 18.174645 691.000000 0.85
-13.328073 19.386288 691.000000 0.85
-13.366649 20.657549 693.000000 0.85
-13.366649 21.872699 693.000000 0.85
-13.366649 23.087849 693.000000 0.85
-13.366649 24.302998 693.000000 0.85
-13.366649 25.518148 693.000000 0.85
-13.366649 26.733298 693.000000 0.85
-13.366649 27.948448 693.000000 0.85
-13.366649 29.163598 693.000000 0.85
-13.385937 30.422585 694.000000 0.85
-13.385937 31.639488 694.000000 0.85
-13.385937 32.856391 694.000000 0.85
-13.385937 34.073295 694.000000 0.85
-13.424513 35.391899 696.000000 0.85
-13.443802 36.664913 697.000000 0.85
-13.463090 37.941434 698.000000 0.85
-13.463090 39.165352 698.000000 0.85
-13.463090 40.389269 698.000000 0.85
-13.501666 41.732422 700.000000 0.85
-13.520954 43.021217 701.000000 0.85
-13.559530 44.376644 703.000000 0.85
-13.578818 45.674207 704.000000 0.85
-13.617394 47.041908 706.000000 0.85
-13.636682 48.348238 707.000000 0.85
-13.655971 49.658075 708.000000 0.85
-13.694547 51.043311 710.000000 0.85
-13.713835 52.361915 711.000000 0.85
-13.713835 53.608627 711.000000 0.85
-13.752411 55.009644 713.000000 0.85
-13.771699 56.338769 714.000000 0.85
-13.810275 57.752060 716.000000 0.85
-13.810275 59.007540 716.000000 0.85
-19.954410 -29.931615 1138.000000 0.85
-12.765211 -17.871296 728.000000 0.85
-12.747677 -16.571980 727.000000 0.85
-12.712607 -15.255129 725.000000 0.85
-12.712607 -13.983868 725.000000 0.85
-12.712607 -12.712607 725.000000 0.85
-12.712607 -11.441347 725.000000 0.85
-12.677538 -10.142031 723.000000 0.85
-12.677538 -8.874277 723.000000 0.85
-12.660004 -7.596002 722.000000 0.85
-12.660004 -6.330002 722.000000 0.85
-12.660004 -5.064001 722.000000 0.85
-12.677538 -3.803261 723.000000 0.85
-12.221638 -2.444328 697.000000 0.85
-12.204103 -1.220410 696.000000 0.85
-12.204103 0.000000 696.000000 0.85
-12.204103 1.220410 696.000000 0.85
-12.169034 2.433807 694.000000 0.85
-12.169034 3.650710 694.000000 0.85
-12.169034 4.867614 694.000000 0.85
-12.151499 6.075750 693.000000 0.85
-12.151499 7.290900 693.000000 0.85
-12.151499 8.506049 693.000000 0.85
-12.151499 9.721199 693.000000 0.85
-12.116430 10.904787 691.000000 0.85
-12.116430 12.116430 691.000000 0.85
-12.116430 13.328073 691.000000 0.85
-12.116430 14.539716 691.000000 0.85
-12.116430 15.751359 691.000000 0.85
-12.116430 16.963002 691.000000 0.85
-12.116430 18.174645 691.000000 0.85
-12.116430 19.386288 691.000000 0.85
-12.151499 20.657549 693.000000 0.85
-12.151499 21.872699 693.000000 0.85
-12.151499 23.087849 693.000000 0.85
-12.151499 24.302998 693.000000 0.85
-12.151499 25.518148 693.000000 0.85
-12.151499 26.733298 693.000000 0.85
-12.151499 27.948448 693.000000 0.85
-12.151499 29.163598 693.000000 0.85
-12.169034 30.422585 694.000000 0.85
-12.169034 31.639488 694.000000 0.85
-12.169034 32.856391 694.000000 0.85
-12.169034 34.073295 694.000000 0.85
-12.204103 35.391899 696.000000 0.85
-12.221638 36.664913 697.000000 0.85
-12.239172 37.941434 698.000000 0.85
-12.239172 39.165352 698.000000 0.85
-12.239172 40.389269 698.000000 0.85
-12.274242 41.732422 700.000000 0.85
-12.291776 43.021217 701.000000 0.85
-12.326846 44.376644 703.000000 0.85
-12.344380 45.674207 704.000000 0.85
-12.379449 47.041908 706.000000 0.85
-12.396984 48.348238 707.000000 0.85
-12.414519 49.658075 708.000000 0.85
-12.449588 51.043311 710.000000 0.85
-12.467123 52.361915 711.000000 0.85
-12.467123 53.608627 711.000000 0.85
-12.502192 55.009644 713.000000 0.85
-12.519726 56.338769 714.000000 0.85
-12.519726 57.590742 714.000000 0.85
-17.958969 -29.931615 1138.000000 0.85
-11.488690 -17.871296 728.000000 0.85
-11.472909 -16.571980 727.000000 0.85
-11.441347 -15.255129 725.000000 0.85
-11.441347 -13.983868 725.000000 0.85
-11.441347 -12.712607 725.000000 0.85
-11.441347 -11.441347 725.000000 0.85
-11.409784 -10.142031 723.000000 0.85
-11.409784 -8.874277 723.000000 0.85
-11.394003 -7.596002 722.000000 0.85
-11.394003 -6.330002 722.000000 0.85
-11.394003 -5.064001 722.000000 0.85
-11.409784 -3.803261 723.000000 0.85
-10.999474 -2.444328 697.000000 0.85
-10.999474 -1.222164 697.000000 0.85
-10.952130 0.000000 694.000000 0.85
-10.952130 1.216903 694.000000 0.85
-10.952130 2.433807 694.000000 0.85
-10.952130 3.650710 694.000000 0.85
-10.952130 4.867614 694.000000 0.85
-10.936349 6.075750 693.000000 0.85
-10.936349 7.290900 693.000000 0.85
-10.936349 8.506049 693.000000 0.85
-10.904787 9.693144 691.000000 0.85
-10.904787 10.904787 691.000000 0.85
-10.904787 12.116430 691.000000 0.85
-10.889006 13.308785 690.000000 0.85
-10.889006 14.518674 690.000000 0.85
-10.904787 15.751359 691.000000 0.85
-10.889006 16.938453 690.000000 0.85
-10.889006 18.148343 690.000000 0.85
-10.904787 19.386288 691.000000 0.85
-10.904787 20.597931 691.000000 0.85
-10.904787 21.809574 691.000000 0.85
-10.936349 23.087849 693.000000 0.85
-10.936349 24.302998 693.000000 0.85
-10.936349 25.518148 693.000000 0.85
-10.936349 26.733298 693.000000 0.85
-10.936349 27.948448 693.000000 0.85
-10.936349 29.163598 693.000000 0.85
-10.936349 30.378748 693.000000 0.85
-10.952130 31.639488 694.000000 0.85
-10.952130 32.856391 694.000000 0.85
-10.983693 34.171489 696.000000 0.85
-10.983693 35.391899 696.000000 0.85
-10.999474 36.664913 697.000000 0.85
-11.015255 37.941434 698.000000 0.85
-11.015255 39.165352 698.000000 0.85
-11.046817 40.504997 700.000000 0.85
-11.046817 41.732422 700.000000 0.85
-11.062599 43.021217 701.000000 0.85
-11.109942 44.439769 704.000000 0.85
-11.141504 45.803963 706.000000 0.85
-11.157286 47.108539 707.000000 0.85
-11.173067 48.416623 708.000000 0.85
-11.173067 49.658075 708.000000 0.85
-11.204629 51.043311 710.000000 0.85
-11.220410 52.361915 711.000000 0.85
-11.220410 53.608627 711.000000 0.85
-11.251973 55.009644 713.000000 0.85
-11.267754 56.338769 714.000000 0.85
-11.267754 57.590742 714.000000 0.85
-15.963528 -29.931615 1138.000000 0.85
-15.963528 -27.936174 1138.000000 0.85
-10.198141 -16.571980 727.000000 0.85
-10.170086 -15.255129 725.000000 0.85
-10.170086 -13.983868 725.000000 0.85
-10.170086 -12.712607 725.000000 0.85
-10.170086 -11.441347 725.000000 0.85
-10.142031 -10.142031 723.000000 0.85
-10.142031 -8.874277 723.000000 0.85
-10.128003 -7.596002 722.000000 0.85
-10.128003 -6.330002 722.000000 0.85
-10.128003 -5.064001 722.000000 0.85
-10.142031 -3.803261 723.000000 0.85
-9.777310 -2.444328 697.000000 0.85
-9.777310 -1.222164 697.000000 0.85
-9.735227 0.000000 694.000000 0.85
-9.735227 1.216903 694.000000 0.85
-9.735227 2.433807 694.000000 0.85
-9.735227 3.650710 694.000000 0.85
-9.735227 4.867614 694.000000 0.85
-9.721199 6.075750 693.000000 0.85
-9.721199 7.290900 693.000000 0.85
-9.721199 8.506049 693.000000 0.85
-9.693144 9.693144 691.000000 0.85
-9.693144 10.904787 691.000000 0.85
-9.693144 12.116430 691.000000 0.85
-9.679116 13.308785 690.000000 0.85
-9.679116 14.518674 690.000000 0.85
-9.693144 15.751359 691.000000 0.85
-9.679116 16.938453 690.000000 0.85
-9.679116 18.148343 690.000000 0.85
-9.693144 19.386288 691.000000 0.85
-9.693144 20.597931 691.000000 0.85
-9.693144 21.809574 691.000000 0.85
-9.721199 23.087849 693.000000 0.85
-9.721199 24.302998 693.000000 0.85
-9.721199 25.518148 693.000000 0.85
-9.721199 26.733298 693.000000 0.85
-9.721199 27.948448 693.000000 0.85
-9.721199 29.163598 693.000000 0.85
-9.721199 30.378748 693.000000 0.85
-9.735227 31.639488 694.000000 0.85
-9.735227 32.856391 694.000000 0.85
-9.763282 34.171489 696.000000 0.85
-9.763282 35.391899 696.000000 0.85
-9.777310 36.664913 697.000000 0.85
-9.791338 37.941434 698.000000 0.85
-9.791338 39.165352 698.000000 0.85
-9.819393 40.504997 700.000000 0.85
-9.819393 41.732422 700.000000 0.85
-9.833421 43.021217 701.000000 0.85
-9.875504 44.439769 704.000000 0.85
-9.903560 45.803963 706.000000 0.85
-9.931615 47.175171 708.000000 0.85
-9.931615 48.416623 708.000000 0.85
-9.959670 49.798352 710.000000 0.85
-9.959670 51.043311 710.000000 0.85
-9.973698 52.361915 711.000000 0.85
-9.973698 53.608627 711.000000 0.85
-10.001753 55.009644 713.000000 0.85
-10.015781 56.338769 714.000000 0.85
-10.043837 57.752060 716.000000 0.85
-13.968087 -29.931615 1138.000000 0.85
-13.968087 -27.936174 1138.000000 0.85
-8.898825 -16.526390 725.000000 0.85
-8.898825 -15.255129 725.000000 0.85
-8.898825 -13.983868 725.000000 0.85
-8.898825 -12.712607 725.000000 0.85
-8.874277 -11.409784 723.000000 0.85
-8.874277 -10.142031 723.000000 0.85
-8.874277 -8.874277 723.000000 0.85
-8.862002 -7.596002 722.000000 0.85
-8.862002 -6.330002 722.000000 0.85
-8.862002 -5.064001 722.000000 0.85
-8.555146 -3.666491 697.000000 0.85
-8.555146 -2.444328 697.000000 0.85
-8.555146 -1.222164 697.000000 0.85
-8.542872 0.000000 696.000000 0.85
-8.542872 1.220410 696.000000 0.85
-8.518324 2.433807 694.000000 0.85
-8.518324 3.650710 694.000000 0.85
-8.518324 4.867614 694.000000 0.85
-8.506049 6.075750 693.000000 0.85
-8.506049 7.290900 693.000000 0.85
-8.506049 8.506049 693.000000 0.85
-8.481501 9.693144 691.000000 0.85
-8.481501 10.904787 691.000000 0.85
-8.481501 12.116430 691.000000 0.85
-8.481501 13.328073 691.000000 0.85
-8.481501 14.539716 691.000000 0.85
-8.481501 15.751359 691.000000 0.85
-8.481501 16.963002 691.000000 0.85
-8.481501 18.174645 691.000000 0.85
-8.481501 19.386288 691.000000 0.85
-8.506049 20.657549 693.000000 0.85
-8.506049 21.872699 693.000000 0.85
-8.506049 23.087849 693.000000 0.85
-8.506049 24.302998 693.000000 0.85
-8.506049 25.518148 693.000000 0.85
-8.506049 26.733298 693.000000 0.85
-8.506049 27.948448 693.000000 0.85
-8.506049 29.163598 693.000000 0.85
-8.518324 30.422585 694.000000 0.85
-8.518324 31.639488 694.000000 0.85
-8.542872 32.951078 696.000000 0.85
-8.555146 34.220586 697.000000 0.85
-8.555146 35.442749 697.000000 0.85
-8.567421 36.717517 698.000000 0.85
-8.567421 37.941434 698.000000 0.85
-8.591969 39.277573 700.000000 0.85
-8.591969 40.504997 700.000000 0.85
-8.604243 41.792039 701.000000 0.85
-8.628792 43.143959 703.000000 0.85
-8.665615 44.566018 706.000000 0.85
-8.665615 45.803963 706.000000 0.85
-8.690163 47.175171 708.000000 0.85
-8.714712 48.553393 710.000000 0.85
-8.714712 49.798352 710.000000 0.85
-8.726986 51.115203 711.000000 0.85
-8.726986 52.361915 711.000000 0.85
-8.726986 53.608627 711.000000 0.85
-8.751534 55.009644 713.000000 0.85
-8.763809 56.338769 714.000000 0.85
-8.788357 57.752060 716.000000 0.85
-11.972646 -29.931615 1138.000000 0.85
-7.606523 -17.748553 723.000000 0.85
-7.606523 -16.480800 723.000000 0.85
-7.606523 -15.213046 723.000000 0.85
-7.606523 -13.945292 723.000000 0.85
-7.606523 -12.677538 723.000000 0.85
-7.606523 -11.409784 723.000000 0.85
-7.606523 -10.142031 723.000000 0.85
-7.596002 -8.862002 722.000000 0.85
-7.596002 -7.596002 722.000000 0.85
-7.596002 -6.330002 722.000000 0.85
-7.596002 -5.064001 722.000000 0.85
-7.396107 -3.698054 703.000000 0.85
-7.332983 -2.444328 697.000000 0.85
-7.332983 -1.222164 697.000000 0.85
-7.322462 0.000000 696.000000 0.85
-7.322462 1.220410 696.000000 0.85
-7.301420 2.433807 694.000000 0.85
-7.301420 3.650710 694.000000 0.85
-7.301420 4.867614 694.000000 0.85
-7.290900 6.075750 693.000000 0.85
-7.290900 7.290900 693.000000 0.85
-7.290900 8.506049 693.000000 0.85
-7.269858 9.693144 691.000000 0.85
-7.269858 10.904787 691.000000 0.85
-7.269858 12.116430 691.000000 0.85
-7.269858 13.328073 691.000000 0.85
-7.269858 14.539716 691.000000 0.85
-7.269858 15.751359 691.000000 0.85
-7.269858 16.963002 691.000000 0.85
-7.269858 18.174645 691.000000 0.85
-7.290900 19.442399 693.000000 0.85
-7.290900 20.657549 693.000000 0.85
-7.290900 21.872699 693.000000 0.85
-7.290900 23.087849 693.000000 0.85
-7.290900 24.302998 693.000000 0.85
-7.290900 25.518148 693.000000 0.85
-7.301420 26.771874 694.000000 0.85
-7.301420 27.988778 694.000000 0.85
-7.301420 29.205681 694.000000 0.85
-7.301420 30.422585 694.000000 0.85
-7.301420 31.639488 694.000000 0.85
-7.322462 32.951078 696.000000 0.85
-7.332983 34.220586 697.000000 0.85
-7.332983 35.442749 697.000000 0.85
-7.343503 36.717517 698.000000 0.85
-7.364545 38.050149 700.000000 0.85
-7.364545 39.277573 700.000000 0.85
-7.375066 40.562862 701.000000 0.85
-7.375066 41.792039 701.000000 0.85
-7.406628 43.205331 704.000000 0.85
-7.427670 44.566018 706.000000 0.85
-7.427670 45.803963 706.000000 0.85
-7.448711 47.175171 708.000000 0.85
-7.469753 48.553393 710.000000 0.85
-7.469753 49.798352 710.000000 0.85
-7.480274 51.115203 711.000000 0.85
-7.501315 52.509206 713.000000 0.85
-7.501315 53.759425 713.000000 0.85
-7.511836 55.086796 714.000000 0.85
-7.543398 56.575487 717.000000 0.85
-7.564440 57.994038 719.000000 0.85
-9.977205 -29.931615 1138.000000 0.85
-6.330002 -17.724005 722.000000 0.85
-6.330002 -16.458005 722.000000 0.85
-6.338769 -15.213046 723.000000 0.85
-6.338769 -13.945292 723.000000 0.85
-6.338769 -12.677538 723.000000 0.85
-6.338769 -11.409784 723.000000 0.85
-6.330002 -10.128003 722.000000 0.85
-6.330002 -8.862002 722.000000 0.85
-6.330002 -7.596002 722.000000 0.85
-6.330002 -6.330002 722.000000 0.85
-6.163423 -4.930738 703.000000 0.85
-6.163423 -3.698054 703.000000 0.85
-6.119586 -2.447834 698.000000 0.85
-6.119586 -1.223917 698.000000 0.85
-6.110819 0.000000 697.000000 0.85
-6.102052 1.220410 696.000000 0.85
-6.084517 2.433807 694.000000 0.85
-6.084517 3.650710 694.000000 0.85
-6.084517 4.867614 694.000000 0.85
-6.075750 6.075750 693.000000 0.85
-6.075750 7.290900 693.000000 0.85
-6.075750 8.506049 693.000000 0.85
-6.058215 9.693144 691.000000 0.85
-6.058215 10.904787 691.000000 0.85
-6.058215 12.116430 691.000000 0.85
-6.058215 13.328073 691.000000 0.85
-6.058215 14.539716 691.000000 0.85
-6.058215 15.751359 691.000000 0.85
-6.075750 17.012099 693.000000 0.85
-6.075750 18.227249 693.000000 0.85
-6.075750 19.442399 693.000000 0.85
-6.075750 20.657549 693.000000 0.85
-6.075750 21.872699 693.000000 0.85
-6.075750 23.087849 693.000000 0.85
-6.075750 24.302998 693.000000 0.85
-6.084517 25.554971 694.000000 0.85
-6.084517 26.771874 694.000000 0.85
-6.084517 27.988778 694.000000 0.85
-6.084517 29.205681 694.000000 0.85
-6.084517 30.422585 694.000000 0.85
-6.084517 31.639488 694.000000 0.85
-6.102052 32.951078 696.000000 0.85
-6.110819 34.220586 697.000000 0.85
-6.119586 35.493600 698.000000 0.85
-6.119586 36.717517 698.000000 0.85
-6.137121 38.050149 700.000000 0.85
-6.137121 39.277573 700.000000 0.85
-6.145888 40.562862 701.000000 0.85
-6.145888 41.792039 701.000000 0.85
-6.172190 43.205331 704.000000 0.85
-6.189725 44.566018 706.000000 0.85
-6.198492 45.868841 707.000000 0.85
-6.207259 47.175171 708.000000 0.85
-6.224794 48.553393 710.000000 0.85
-6.233561 49.868490 711.000000 0.85
-6.233561 51.115203 711.000000 0.85
-6.251096 52.509206 713.000000 0.85
-6.259863 53.834824 714.000000 0.85
-6.277398 55.241101 716.000000 0.85
-6.286165 56.575487 717.000000 0.85
-6.312467 58.074698 720.000000 0.85
-7.981764 -29.931615 1138.000000 0.85
-5.064001 -17.724005 722.000000 0.85
-5.064001 -16.458005 722.000000 0.85
-5.071015 -15.213046 723.000000 0.85
-5.071015 -13.945292 723.000000 0.85
-5.071015 -12.677538 723.000000 0.85
-5.064001 -11.394003 722.000000 0.85
-5.042960 -10.085920 719.000000 0.85
-5.021918 -8.788357 716.000000 0.85
-5.021918 -7.532877 716.000000 0.85
-5.064001 -6.330002 722.000000 0.85
-4.951780 -4.951780 706.000000 0.85
-4.930738 -3.698054 703.000000 0.85
-4.909697 -2.454848 700.000000 0.85
-4.909697 -1.227424 700.000000 0.85
-4.888655 0.000000 697.000000 0.85
-4.881641 1.220410 696.000000 0.85
-4.881641 2.440821 696.000000 0.85
-4.867614 3.650710 694.000000 0.85
-4.867614 4.867614 694.000000 0.85
-4.867614 6.084517 694.000000 0.85
-4.860600 7.290900 693.000000 0.85
-4.860600 8.506049 693.000000 0.85
-4.860600 9.721199 693.000000 0.85
-4.860600 10.936349 693.000000 0.85
-4.860600 12.151499 693.000000 0.85
-4.860600 13.366649 693.000000 0.85
-4.860600 14.581799 693.000000 0.85
-4.860600 15.796949 693.000000 0.85
-4.860600 17.012099 693.000000 0.85
-4.860600 18.227249 693.000000 0.85
-4.860600 19.442399 693.000000 0.85
-4.860600 20.657549 693.000000 0.85
-4.860600 21.872699 693.000000 0.85
-4.860600 23.087849 693.000000 0.85
-4.867614 24.338068 694.000000 0.85
-4.867614 25.554971 694.000000 0.85
-4.867614 26.771874 694.000000 0.85
-4.867614 27.988778 694.000000 0.85
-4.867614 29.205681 694.000000 0.85
-4.867614 30.422585 694.000000 0.85
-4.881641 31.730668 696.000000 0.85
-4.895669 33.045765 698.000000 0.85
-4.895669 34.269683 698.000000 0.85
-4.895669 35.493600 698.000000 0.85
-4.909697 36.822725 700.000000 0.85
-4.909697 38.050149 700.000000 0.85
-4.916711 39.333684 701.000000 0.85
-4.916711 40.562862 701.000000 0.85
-4.930738 41.911275 703.000000 0.85
-4.937752 43.205331 704.000000 0.85
-4.958794 44.629143 707.000000 0.85
-4.965807 45.933719 708.000000 0.85
-4.979835 47.308434 710.000000 0.85
-4.986849 48.621778 711.000000 0.85
-4.986849 49.868490 711.000000 0.85
-5.000877 51.258986 713.000000 0.85
-5.007891 52.582851 714.000000 0.85
-5.007891 53.834824 714.000000 0.85
-5.021918 55.241101 716.000000 0.85
-5.028932 56.575487 717.000000 0.85
-5.049974 58.074698 720.000000 0.85
-5.986323 -29.931615 1138.000000 0.85
-3.798001 -17.724005 722.000000 0.85
-3.798001 -16.458005 722.000000 0.85
-3.798001 -15.192004 722.000000 0.85
-3.798001 -13.926004 722.000000 0.85
-3.798001 -12.660004 722.000000 0.85
-3.782220 -11.346660 719.000000 0.85
-3.782220 -10.085920 719.000000 0.85
-3.766439 -8.788357 716.000000 0.85
-3.734876 -7.469753 710.000000 0.85
-3.719095 -6.198492 707.000000 0.85
-3.713835 -4.951780 706.000000 0.85
-3.703314 -3.703314 704.000000 0.85
-3.698054 -2.465369 703.000000 0.85
-3.687533 -1.229178 701.000000 0.85
-3.671752 0.000000 698.000000 0.85
-3.666491 1.222164 697.000000 0.85
-3.661231 2.440821 696.000000 0.85
-3.661231 3.661231 696.000000 0.85
-3.650710 4.867614 694.000000 0.85
-3.650710 6.084517 694.000000 0.85
-3.645450 7.290900 693.000000 0.85
-3.645450 8.506049 693.000000 0.85
-3.645450 9.721199 693.000000 0.85
-3.645450 10.936349 693.000000 0.85
-3.645450 12.151499 693.000000 0.85
-3.645450 13.366649 693.000000 0.85
-3.645450 14.581799 693.000000 0.85
-3.645450 15.796949 693.000000 0.85
-3.645450 17.012099 693.000000 0.85
-3.645450 18.227249 693.000000 0.85
-3.650710 19.470454 694.000000 0.85
-3.650710 20.687358 694.000000 0.85
-3.650710 21.904261 694.000000 0.85
-3.650710 23.121164 694.000000 0.85
-3.650710 24.338068 694.000000 0.85
-3.650710 25.554971 694.000000 0.85
-3.650710 26.771874 694.000000 0.85
-3.650710 27.988778 694.000000 0.85
-3.650710 29.205681 694.000000 0.85
-3.661231 30.510258 696.000000 0.85
-3.666491 31.776258 697.000000 0.85
-3.671752 33.045765 698.000000 0.85
-3.682272 34.367877 700.000000 0.85
-3.682272 35.595301 700.000000 0.85
-3.682272 36.822725 700.000000 0.85
-3.687533 38.104506 701.000000 0.85
-3.687533 39.333684 701.000000 0.85
-3.698054 40.678590 703.000000 0.85
-3.703314 41.970893 704.000000 0.85
-3.713835 43.328073 706.000000 0.85
-3.719095 44.629143 707.000000 0.85
-3.724356 45.933719 708.000000 0.85
-3.734876 47.308434 710.000000 0.85
-3.740137 48.621778 711.000000 0.85
-3.740137 49.868490 711.000000 0.85
-3.750658 51.258986 713.000000 0.85
-3.755918 52.582851 714.000000 0.85
-3.755918 53.834824 714.000000 0.85
-3.766439 55.241101 716.000000 0.85
-3.771699 56.575487 717.000000 0.85
-3.798001 58.236016 722.000000 0.85
-3.990882 -29.931615 1138.000000 0.85
-2.532001 -17.724005 722.000000 0.85
-2.532001 -16.458005 722.000000 0.85
-2.532001 -15.192004 722.000000 0.85
-2.532001 -13.926004 722.000000 0.85
-2.493425 -12.467123 711.000000 0.85
-2.493425 -11.220410 711.000000 0.85
-2.493425 -9.973698 711.000000 0.85
-2.489918 -8.714712 710.000000 0.85
-2.482904 -7.448711 708.000000 0.85
-2.479397 -6.198492 707.000000 0.85
-2.475890 -4.951780 706.000000 0.85
-2.468876 -3.703314 704.000000 0.85
-2.465369 -2.465369 703.000000 0.85
-2.458355 -1.229178 701.000000 0.85
-2.454848 0.000000 700.000000 0.85
-2.447834 1.223917 698.000000 0.85
-2.444328 2.444328 697.000000 0.85
-2.440821 3.661231 696.000000 0.85
-2.433807 4.867614 694.000000 0.85
-2.433807 6.084517 694.000000 0.85
-2.430300 7.290900 693.000000 0.85
-2.430300 8.506049 693.000000 0.85
-2.430300 9.721199 693.000000 0.85
-2.430300 10.936349 693.000000 0.85
-2.430300 12.151499 693.000000 0.85
-2.430300 13.366649 693.000000 0.85
-2.430300 14.581799 693.000000 0.85
-2.430300 15.796949 693.000000 0.85
-2.430300 17.012099 693.000000 0.85
-2.430300 18.227249 693.000000 0.85
-2.433807 19.470454 694.000000 0.85
-2.433807 20.687358 694.000000 0.85
-2.433807 21.904261 694.000000 0.85
-2.433807 23.121164 694.000000 0.85
-2.433807 24.338068 694.000000 0.85
-2.433807 25.554971 694.000000 0.85
-2.433807 26.771874 694.000000 0.85
-2.433807 27.988778 694.000000 0.85
-2.440821 29.289847 696.000000 0.85
-2.444328 30.554094 697.000000 0.85
-2.447834 31.821848 698.000000 0.85
-2.447834 33.045765 698.000000 0.85
-2.454848 34.367877 700.000000 0.85
-2.454848 35.595301 700.000000 0.85
-2.458355 36.875329 701.000000 0.85
-2.458355 38.104506 701.000000 0.85
-2.465369 39.445906 703.000000 0.85
-2.468876 40.736454 704.000000 0.85
-2.475890 42.090128 706.000000 0.85
-2.479397 43.389444 707.000000 0.85
-2.482904 44.692267 708.000000 0.85
-2.489918 46.063475 710.000000 0.85
-2.493425 47.375066 711.000000 0.85
-2.493425 48.621778 711.000000 0.85
-2.500438 50.008767 713.000000 0.85
-2.503945 51.330878 714.000000 0.85
-2.514466 52.803787 717.000000 0.85
-2.514466 54.061021 717.000000 0.85
-2.521480 55.472558 719.000000 0.85
-2.524987 56.812204 720.000000 0.85
-2.532001 58.236016 722.000000 0.85
-1.995441 -29.931615 1138.000000 0.85
-1.266000 -17.724005 722.000000 0.85
-1.266000 -16.458005 722.000000 0.85
-1.266000 -15.192004 722.000000 0.85
-1.266000 -13.926004 722.000000 0.85
-1.246712 -12.467123 711.000000 0.85
-1.246712 -11.220410 711.000000 0.85
-1.244959 -9.959670 710.000000 0.85
-1.244959 -8.714712 710.000000 0.85
-1.241452 -7.448711 708.000000 0.85
-1.237945 -6.189725 706.000000 0.85
-1.237945 -4.951780 706.000000 0.85
-1.234438 -3.703314 704.000000 0.85
-1.234438 -2.468876 704.000000 0.85
-1.232685 -1.232685 703.000000 0.85
-1.227424 0.000000 700.000000 0.85
-1.227424 1.227424 700.000000 0.85
-1.223917 2.447834 698.000000 0.85
-1.220410 3.661231 696.000000 0.85
-1.220410 4.881641 696.000000 0.85
-1.216903 6.084517 694.000000 0.85
-1.216903 7.301420 694.000000 0.85
-1.216903 8.518324 694.000000 0.85
-1.215150 9.721199 693.000000 0.85
-1.215150 10.936349 693.000000 0.85
-1.215150 12.151499 693.000000 0.85
-1.215150 13.366649 693.000000 0.85
-1.215150 14.581799 693.000000 0.85
-1.215150 15.796949 693.000000 0.85
-1.216903 17.036647 694.000000 0.85
-1.216903 18.253551 694.000000 0.85
-1.216903 19.470454 694.000000 0.85
-1.220410 20.746975 696.000000 0.85
-1.220410 21.967386 696.000000 0.85
-1.220410 23.187796 696.000000 0.85
-1.220410 24.408206 696.000000 0.85
-1.220410 25.628617 696.000000 0.85
-1.220410 26.849027 696.000000 0.85
-1.222164 28.109767 697.000000 0.85
-1.222164 29.331931 697.000000 0.85
-1.223917 30.597931 698.000000 0.85
-1.223917 31.821848 698.000000 0.85
-1.223917 33.045765 698.000000 0.85
-1.227424 34.367877 700.000000 0.85
-1.227424 35.595301 700.000000 0.85
-1.229178 36.875329 701.000000 0.85
-1.232685 38.213221 703.000000 0.85
-1.232685 39.445906 703.000000 0.85
-1.234438 40.736454 704.000000 0.85
-1.237945 42.090128 706.000000 0.85
-1.239698 43.389444 707.000000 0.85
-1.241452 44.692267 708.000000 0.85
-1.241452 45.933719 708.000000 0.85
-1.246712 47.375066 711.000000 0.85
-1.250219 48.758548 713.000000 0.85
-1.251973 50.078906 714.000000 0.85
-1.255480 51.474662 716.000000 0.85
-1.257233 52.803787 717.000000 0.85
-1.260740 54.211818 719.000000 0.85
-1.262493 55.549711 720.000000 0.85
-1.266000 56.970016 722.000000 0.85
0.000000 -17.724005 722.000000 0.85
0.000000 -16.458005 722.000000 0.85
0.000000 -15.149921 720.000000 0.85
0.000000 -13.868140 719.000000 0.85
0.000000 -12.519726 714.000000 0.85
0.000000 -11.220410 711.000000 0.85
0.000000 -9.959670 710.000000 0.85
0.000000 -8.690163 708.000000 0.85
0.000000 -7.448711 708.000000 0.85
0.000000 -6.189725 706.000000 0.85
0.000000 -4.951780 706.000000 0.85
0.000000 -3.703314 704.000000 0.85
0.000000 -2.468876 704.000000 0.85
0.000000 -1.232685 703.000000 0.85
0.000000 0.000000 700.000000 0.85
0.000000 1.227424 700.000000 0.85
0.000000 2.447834 698.000000 0.85
0.000000 3.666491 697.000000 0.85
0.000000 4.881641 696.000000 0.85
0.000000 6.084517 694.000000 0.85
0.000000 7.301420 694.000000 0.85
0.000000 8.518324 694.000000 0.85
0.000000 9.721199 693.000000 0.85
0.000000 10.936349 693.000000 0.85
0.000000 12.151499 693.000000 0.85
0.000000 13.385937 694.000000 0.85
0.000000 14.602841 694.000000 0.85
0.000000 15.819744 694.000000 0.85
0.000000 17.036647 694.000000 0.85
0.000000 18.253551 694.000000 0.85
0.000000 19.470454 694.000000 0.85
0.000000 20.746975 696.000000 0.85
0.000000 21.967386 696.000000 0.85
0.000000 23.187796 696.000000 0.85
0.000000 24.408206 696.000000 0.85
0.000000 25.665439 697.000000 0.85
0.000000 26.887603 697.000000 0.85
0.000000 28.109767 697.000000 0.85
0.000000 29.374014 698.000000 0.85
0.000000 30.597931 698.000000 0.85
0.000000 31.821848 698.000000 0.85
0.000000 33.140452 700.000000 0.85
0.000000 34.367877 700.000000 0.85
0.000000 35.646151 701.000000 0.85
0.000000 36.875329 701.000000 0.85
0.000000 38.213221 703.000000 0.85
0.000000 39.502016 704.000000 0.85
0.000000 40.852183 706.000000 0.85
0.000000 42.090128 706.000000 0.85
0.000000 43.389444 707.000000 0.85
0.000000 44.692267 708.000000 0.85
0.000000 45.933719 708.000000 0.85
0.000000 47.375066 711.000000 0.85
0.000000 48.758548 713.000000 0.85
0.000000 50.219183 716.000000 0.85
0.000000 51.762230 720.000000 0.85
0.000000 53.172015 722.000000 0.85
