ply
format ascii 1.0
comment
element vertex 1296
property float32 x
property float32 y
property float32 z
property float intensity
element face 0
property list uchar int vertex_indices
end_header
-16.093284 38.376293 706.000000 0.85
-16.116079 39.670349 707.000000 0.85
-16.116079 40.910047 707.000000 0.85
-16.138874 42.209363 708.000000 0.85
-16.138874 43.450815 708.000000 0.85
-16.184464 44.818517 710.000000 0.85
-16.207259 46.128353 711.000000 0.85
-16.252849 47.508329 713.000000 0.85
-16.275644 48.826933 714.000000 0.85
-16.321234 50.219183 716.000000 0.85
-16.344029 51.546554 717.000000 0.85
-16.389619 52.951078 719.000000 0.85
-16.412415 54.287217 720.000000 0.85
-16.458005 55.704015 722.000000 0.85
-16.458005 56.970016 722.000000 0.85
-16.480800 58.316675 723.000000 0.85
-23.861126 -35.791689 1134.000000 0.85
-23.861126 -33.803261 1134.000000 0.85
-15.591794 -20.789058 741.000000 0.85
-15.591794 -19.489742 741.000000 0.85
-15.549711 -18.141329 739.000000 0.85
-15.549711 -16.845520 739.000000 0.85
-15.528669 -15.528669 738.000000 0.85
-15.528669 -14.234613 738.000000 0.85
-15.528669 -12.940558 738.000000 0.85
-15.549711 -11.662283 739.000000 0.85
-15.549711 -10.366474 739.000000 0.85
-14.855339 -8.665615 706.000000 0.85
-14.813256 -7.406628 704.000000 0.85
-14.813256 -6.172190 704.000000 0.85
-14.813256 -4.937752 704.000000 0.85
-14.750132 -3.687533 701.000000 0.85
-14.750132 -2.458355 701.000000 0.85
-14.729090 -1.227424 700.000000 0.85
-14.729090 0.000000 700.000000 0.85
-14.687007 1.223917 698.000000 0.85
-14.687007 2.447834 698.000000 0.85
-14.687007 3.671752 698.000000 0.85
-14.687007 4.895669 698.000000 0.85
-14.687007 6.119586 698.000000 0.85
-14.687007 7.343503 698.000000 0.85
-14.687007 8.567421 698.000000 0.85
-14.687007 9.791338 698.000000 0.85
-14.687007 11.015255 698.000000 0.85
-14.687007 12.239172 698.000000 0.85
-14.687007 13.463090 698.000000 0.85
-14.687007 14.687007 698.000000 0.85
-14.687007 15.910924 698.000000 0.85
-14.687007 17.134841 698.000000 0.85
-14.687007 18.358759 698.000000 0.85
-14.687007 19.582676 698.000000 0.85
-14.687007 20.806593 698.000000 0.85
-14.687007 22.030510 698.000000 0.85
-14.687007 23.254427 698.000000 0.85
-14.687007 24.478345 698.000000 0.85
-14.729090 25.775907 700.000000 0.85
-14.729090 27.003332 700.000000 0.85
-14.729090 28.230756 700.000000 0.85
-14.729090 29.458180 700.000000 0.85
-14.750132 30.729441 701.000000 0.85
-14.750132 31.958618 701.000000 0.85
-14.750132 33.187796 701.000000 0.85
-14.792215 34.515167 703.000000 0.85
-14.813256 35.798702 704.000000 0.85
-14.813256 37.033140 704.000000 0.85
-14.855339 38.376293 706.000000 0.85
-14.855339 39.614238 706.000000 0.85
-14.876381 40.910047 707.000000 0.85
-14.876381 42.149746 707.000000 0.85
-14.897422 43.450815 708.000000 0.85
-14.939506 44.818517 710.000000 0.85
-14.960547 46.128353 711.000000 0.85
-15.002630 47.508329 713.000000 0.85
-15.023672 48.826933 714.000000 0.85
-15.065755 50.219183 716.000000 0.85
-15.086796 51.546554 717.000000 0.85
-15.128880 52.951078 719.000000 0.85
-15.149921 54.287217 720.000000 0.85
-15.192004 55.704015 722.000000 0.85
-15.192004 56.970016 722.000000 0.85
-15.213046 58.316675 723.000000 0.85
-21.872699 -35.791689 1134.000000 0.85
-14.311766 -22.118183 742.000000 0.85
-14.292478 -20.789058 741.000000 0.85
-14.292478 -19.489742 741.000000 0.85
-14.253901 -18.141329 739.000000 0.85
-14.253901 -16.845520 739.000000 0.85
-14.234613 -15.528669 738.000000 0.85
-14.234613 -14.234613 738.000000 0.85
-14.234613 -12.940558 738.000000 0.85
-14.234613 -11.646502 738.000000 0.85
-14.234613 -10.352446 738.000000 0.85
-13.617394 -8.665615 706.000000 0.85
-13.578818 -7.406628 704.000000 0.85
-13.578818 -6.172190 704.000000 0.85
-13.578818 -4.937752 704.000000 0.85
-13.520954 -3.687533 701.000000 0.85
-13.501666 -2.454848 700.000000 0.85
-13.501666 -1.227424 700.000000 0.85
-13.501666 0.000000 700.000000 0.85
-13.463090 1.223917 698.000000 0.85
-13.463090 2.447834 698.000000 0.85
-13.463090 3.671752 698.000000 0.85
-13.463090 4.895669 698.000000 0.85
-13.463090 6.119586 698.000000 0.85
-13.443802 7.332983 697.000000 0.85
-13.443802 8.555146 697.000000 0.85
-13.443802 9.777310 697.000000 0.85
-13.443802 10.999474 697.000000 0.85
-13.443802 12.221638 697.000000 0.85
-13.443802 13.443802 697.000000 0.85
-13.443802 14.665965 697.000000 0.85
-13.443802 15.888129 697.000000 0.85
-13.463090 17.134841 698.000000 0.85
-13.463090 18.358759 698.000000 0.85
-13.463090 19.582676 698.000000 0.85
-13.463090 20.806593 698.000000 0.85
-13.463090 22.030510 698.000000 0.85
-13.463090 23.254427 698.000000 0.85
-13.463090 24.478345 698.000000 0.85
-13.501666 25.775907 700.000000 0.85
-13.501666 27.003332 700.000000 0.85
-13.501666 28.230756 700.000000 0.85
-13.501666 29.458180 700.000000 0.85
-13.520954 30.729441 701.000000 0.85
-13.520954 31.958618 701.000000 0.85
-13.520954 33.187796 701.000000 0.85
-13.520954 34.416974 701.000000 0.85
-13.559530 35.747852 703.000000 0.85
-13.578818 37.033140 704.000000 0.85
-13.617394 38.376293 706.000000 0.85
-13.617394 39.614238 706.000000 0.85
-13.617394 40.852183 706.000000 0.85
-13.636682 42.149746 707.000000 0.85
-13.655971 43.450815 708.000000 0.85
-13.694547 44.818517 710.000000 0.85
-13.713835 46.128353 711.000000 0.85
-13.752411 47.508329 713.000000 0.85
-13.771699 48.826933 714.000000 0.85
-13.810275 50.219183 716.000000 0.85
-13.829563 51.546554 717.000000 0.85
-13.868140 52.951078 719.000000 0.85
-13.887428 54.287217 720.000000 0.85
-13.887428 55.549711 720.000000 0.85
-13.926004 56.970016 722.000000 0.85
-13.945292 58.316675 723.000000 0.85
-19.884271 -35.791689 1134.000000 0.85
-12.993161 -22.088375 741.000000 0.85
-12.958092 -20.732948 739.000000 0.85
-12.958092 -19.437138 739.000000 0.85
-12.958092 -18.141329 739.000000 0.85
-12.940558 -16.822725 738.000000 0.85
-12.905488 -15.486586 736.000000 0.85
-12.905488 -14.196037 736.000000 0.85
-12.940558 -12.940558 738.000000 0.85
-12.940558 -11.646502 738.000000 0.85
-12.940558 -10.352446 738.000000 0.85
-12.940558 -9.058390 738.000000 0.85
-12.344380 -7.406628 704.000000 0.85
-12.344380 -6.172190 704.000000 0.85
-12.344380 -4.937752 704.000000 0.85
-12.326846 -3.698054 703.000000 0.85
-12.274242 -2.454848 700.000000 0.85
-12.274242 -1.227424 700.000000 0.85
-12.239172 0.000000 698.000000 0.85
-12.239172 1.223917 698.000000 0.85
-12.239172 2.447834 698.000000 0.85
-12.239172 3.671752 698.000000 0.85
-12.221638 4.888655 697.000000 0.85
-12.221638 6.110819 697.000000 0.85
-12.221638 7.332983 697.000000 0.85
-12.221638 8.555146 697.000000 0.85
-12.221638 9.777310 697.000000 0.85
-12.221638 10.999474 697.000000 0.85
-12.221638 12.221638 697.000000 0.85
-12.221638 13.443802 697.000000 0.85
-12.221638 14.665965 697.000000 0.85
-12.221638 15.888129 697.000000 0.85
-12.221638 17.110293 697.000000 0.85
-12.221638 18.332457 697.000000 0.85
-12.239172 19.582676 698.000000 0.85
-12.239172 20.806593 698.000000 0.85
-12.239172 22.030510 698.000000 0.85
-12.239172 23.254427 698.000000 0.85
-12.239172 24.478345 698.000000 0.85
-12.274242 25.775907 700.000000 0.85
-12.274242 27.003332 700.000000 0.85
-12.274242 28.230756 700.000000 0.85
-12.274242 29.458180 700.000000 0.85
-12.291776 30.729441 701.000000 0.85
-12.291776 31.958618 701.000000 0.85
-12.291776 33.187796 701.000000 0.85
-12.291776 34.416974 701.000000 0.85
-12.326846 35.747852 703.000000 0.85
-12.344380 37.033140 704.000000 0.85
-12.379449 38.376293 706.000000 0.85
-12.379449 39.614238 706.000000 0.85
-12.379449 40.852183 706.000000 0.85
-12.396984 42.149746 707.000000 0.85
-12.414519 43.450815 708.000000 0.85
-12.449588 44.818517 710.000000 0.85
-12.467123 46.128353 711.000000 0.85
-12.502192 47.508329 713.000000 0.85
-12.519726 48.826933 714.000000 0.85
-12.554796 50.219183 716.000000 0.85
-12.572330 51.546554 717.000000 0.85
-12.572330 52.803787 717.000000 0.85
-12.607400 54.211818 719.000000 0.85
-12.624934 55.549711 720.000000 0.85
-12.660004 56.970016 722.000000 0.85
-12.677538 58.316675 723.000000 0.85
-17.958969 -35.917938 1138.000000 0.85
-11.662283 -22.028757 739.000000 0.85
-11.662283 -20.732948 739.000000 0.85
-11.662283 -19.437138 739.000000 0.85
-11.662283 -18.141329 739.000000 0.85
-11.646502 -16.822725 738.000000 0.85
-11.614940 -15.486586 736.000000 0.85
-11.614940 -14.196037 736.000000 0.85
-11.646502 -12.940558 738.000000 0.85
-11.646502 -11.646502 738.000000 0.85
-11.646502 -10.352446 738.000000 0.85
-11.646502 -9.058390 738.000000 0.85
-11.109942 -7.406628 704.000000 0.85
-11.109942 -6.172190 704.000000 0.85
-11.109942 -4.937752 704.000000 0.85
-11.062599 -3.687533 701.000000 0.85
-11.046817 -2.454848 700.000000 0.85
-11.046817 -1.227424 700.000000 0.85
-11.015255 0.000000 698.000000 0.85
-11.015255 1.223917 698.000000 0.85
-11.015255 2.447834 698.000000 0.85
-11.015255 3.671752 698.000000 0.85
-10.999474 4.888655 697.000000 0.85
-10.999474 6.110819 697.000000 0.85
-10.999474 7.332983 697.000000 0.85
-10.999474 8.555146 697.000000 0.85
-10.999474 9.777310 697.000000 0.85
-10.999474 10.999474 697.000000 0.85
-10.999474 12.221638 697.000000 0.85
-10.999474 13.443802 697.000000 0.85
-10.999474 14.665965 697.000000 0.85
-10.999474 15.888129 697.000000 0.85
-10.999474 17.110293 697.000000 0.85
-10.999474 18.332457 697.000000 0.85
-10.999474 19.554620 697.000000 0.85
-10.999474 20.776784 697.000000 0.85
-11.015255 22.030510 698.000000 0.85
-11.015255 23.254427 698.000000 0.85
-11.015255 24.478345 698.000000 0.85
-11.046817 25.775907 700.000000 0.85
-11.046817 27.003332 700.000000 0.85
-11.046817 28.230756 700.000000 0.85
-11.046817 29.458180 700.000000 0.85
-11.046817 30.685604 700.000000 0.85
-11.062599 31.958618 701.000000 0.85
-11.062599 33.187796 701.000000 0.85
-11.062599 34.416974 701.000000 0.85
-11.094161 35.747852 703.000000 0.85
-11.109942 37.033140 704.000000 0.85
-11.109942 38.267578 704.000000 0.85
-11.141504 39.614238 706.000000 0.85
-11.141504 40.852183 706.000000 0.85
-11.157286 42.149746 707.000000 0.85
-11.173067 43.450815 708.000000 0.85
-11.204629 44.818517 710.000000 0.85
-11.220410 46.128353 711.000000 0.85
-11.251973 47.508329 713.000000 0.85
-11.267754 48.826933 714.000000 0.85
-11.299316 50.219183 716.000000 0.85
-11.299316 51.474662 716.000000 0.85
-11.315097 52.803787 717.000000 0.85
-11.346660 54.211818 719.000000 0.85
-11.362441 55.549711 720.000000 0.85
-11.394003 56.970016 722.000000 0.85
-11.409784 58.316675 723.000000 0.85
-15.907417 -35.791689 1134.000000 0.85
-10.366474 -22.028757 739.000000 0.85
-10.366474 -20.732948 739.000000 0.85
-10.366474 -19.437138 739.000000 0.85
-10.352446 -18.116781 738.000000 0.85
-10.352446 -16.822725 738.000000 0.85
-10.324391 -15.486586 736.000000 0.85
-10.324391 -14.196037 736.000000 0.85
-10.324391 -12.905488 736.000000 0.85
-10.352446 -11.646502 738.000000 0.85
-10.352446 -10.352446 738.000000 0.85
-9.875504 -8.641066 704.000000 0.85
-9.875504 -7.406628 704.000000 0.85
-9.875504 -6.172190 704.000000 0.85
-9.875504 -4.937752 704.000000 0.85
-9.833421 -3.687533 701.000000 0.85
-9.819393 -2.454848 700.000000 0.85
-9.819393 -1.227424 700.000000 0.85
-9.791338 0.000000 698.000000 0.85
-9.791338 1.223917 698.000000 0.85
-9.791338 2.447834 698.000000 0.85
-9.791338 3.671752 698.000000 0.85
-9.777310 4.888655 697.000000 0.85
-9.777310 6.110819 697.000000 0.85
-9.777310 7.332983 697.000000 0.85
-9.777310 8.555146 697.000000 0.85
-9.777310 9.777310 697.000000 0.85
-9.777310 10.999474 697.000000 0.85
-9.777310 12.221638 697.000000 0.85
-9.777310 13.443802 697.000000 0.85
-9.777310 14.665965 697.000000 0.85
-9.777310 15.888129 697.000000 0.85
-9.777310 17.110293 697.000000 0.85
-9.777310 18.332457 697.000000 0.85
-9.777310 19.554620 697.000000 0.85
-9.777310 20.776784 697.000000 0.85
-9.791338 22.030510 698.000000 0.85
-9.791338 23.254427 698.000000 0.85
-9.791338 24.478345 698.000000 0.85
-9.819393 25.775907 700.000000 0.85
-9.819393 27.003332 700.000000 0.85
-9.819393 28.230756 700.000000 0.85
-9.819393 29.458180 700.000000 0.85
-9.819393 30.685604 700.000000 0.85
-9.819393 31.913028 700.000000 0.85
-9.833421 33.187796 701.000000 0.85
-9.833421 34.416974 701.000000 0.85
-9.861476 35.747852 703.000000 0.85
-9.875504 37.033140 704.000000 0.85
-9.875504 38.267578 704.000000 0.85
-9.903560 39.614238 706.000000 0.85
-9.903560 40.852183 706.000000 0.85
-9.917587 42.149746 707.000000 0.85
-9.931615 43.450815 708.000000 0.85
-9.959670 44.818517 710.000000 0.85
-9.973698 46.128353 711.000000 0.85
-10.001753 47.508329 713.000000 0.85
-10.015781 48.826933 714.000000 0.85
-10.043837 50.219183 716.000000 0.85
-10.043837 51.474662 716.000000 0.85
-10.057864 52.803787 717.000000 0.85
-10.085920 54.211818 719.000000 0.85
-10.099947 55.549711 720.000000 0.85
-10.128003 56.970016 722.000000 0.85
-10.142031 58.316675 723.000000 0.85
-13.918990 -35.791689 1134.000000 0.85
-9.058390 -21.998948 738.000000 0.85
-9.058390 -20.704892 738.000000 0.85
-9.070665 -19.437138 739.000000 0.85
-9.058390 -18.116781 738.000000 0.85
-9.058390 -16.822725 738.000000 0.85
-9.033842 -15.486586 736.000000 0.85
-9.033842 -14.196037 736.000000 0.85
-9.033842 -12.905488 736.000000 0.85
-9.058390 -11.646502 738.000000 0.85
-9.058390 -10.352446 738.000000 0.85
-8.641066 -8.641066 704.000000 0.85
-8.641066 -7.406628 704.000000 0.85
-8.641066 -6.172190 704.000000 0.85
-8.628792 -4.930738 703.000000 0.85
-8.604243 -3.687533 701.000000 0.85
-8.591969 -2.454848 700.000000 0.85
-8.591969 -1.227424 700.000000 0.85
-8.567421 0.000000 698.000000 0.85
-8.567421 1.223917 698.000000 0.85
-8.567421 2.447834 698.000000 0.85
-8.567421 3.671752 698.000000 0.85
-8.555146 4.888655 697.000000 0.85
-8.555146 6.110819 697.000000 0.85
-8.555146 7.332983 697.000000 0.85
-8.542872 8.542872 696.000000 0.85
-8.542872 9.763282 696.000000 0.85
-8.542872 10.983693 696.000000 0.85
-8.542872 12.204103 696.000000 0.85
-8.542872 13.424513 696.000000 0.85
-8.542872 14.644924 696.000000 0.85
-8.555146 15.888129 697.000000 0.85
-8.555146 17.110293 697.000000 0.85
-8.555146 18.332457 697.000000 0.85
-8.567421 19.582676 698.000000 0.85
-8.567421 20.806593 698.000000 0.85
-8.567421 22.030510 698.000000 0.85
-8.567421 23.254427 698.000000 0.85
-8.567421 24.478345 698.000000 0.85
-8.591969 25.775907 700.000000 0.85
-8.591969 27.003332 700.000000 0.85
-8.591969 28.230756 700.000000 0.85
-8.591969 29.458180 700.000000 0.85
-8.591969 30.685604 700.000000 0.85
-8.591969 31.913028 700.000000 0.85
-8.604243 33.187796 701.000000 0.85
-8.604243 34.416974 701.000000 0.85
-8.628792 35.747852 703.000000 0.85
-8.641066 37.033140 704.000000 0.85
-8.641066 38.267578 704.000000 0.85
-8.665615 39.614238 706.000000 0.85
-8.677889 40.910047 707.000000 0.85
-8.677889 42.149746 707.000000 0.85
-8.690163 43.450815 708.000000 0.85
-8.714712 44.818517 710.000000 0.85
-8.726986 46.128353 711.000000 0.85
-8.751534 47.508329 713.000000 0.85
-8.763809 48.826933 714.000000 0.85
-8.788357 50.219183 716.000000 0.85
-8.788357 51.474662 716.000000 0.85
-8.800631 52.803787 717.000000 0.85
-8.825180 54.211818 719.000000 0.85
-8.837454 55.549711 720.000000 0.85
-8.862002 56.970016 722.000000 0.85
-8.874277 58.316675 723.000000 0.85
-11.930563 -35.791689 1134.000000 0.85
-7.764335 -21.998948 738.000000 0.85
-7.764335 -20.704892 738.000000 0.85
-7.764335 -19.410836 738.000000 0.85
-7.764335 -18.116781 738.000000 0.85
-7.764335 -16.822725 738.000000 0.85
-7.743293 -15.486586 736.000000 0.85
-7.743293 -14.196037 736.000000 0.85
-7.743293 -12.905488 736.000000 0.85
-7.743293 -11.614940 736.000000 0.85
-7.743293 -10.324391 736.000000 0.85
-7.427670 -8.665615 706.000000 0.85
-7.406628 -7.406628 704.000000 0.85
-7.406628 -6.172190 704.000000 0.85
-7.396107 -4.930738 703.000000 0.85
-7.375066 -3.687533 701.000000 0.85
-7.364545 -2.454848 700.000000 0.85
-7.364545 -1.227424 700.000000 0.85
-7.343503 0.000000 698.000000 0.85
-7.343503 1.223917 698.000000 0.85
-7.343503 2.447834 698.000000 0.85
-7.343503 3.671752 698.000000 0.85
-7.332983 4.888655 697.000000 0.85
-7.332983 6.110819 697.000000 0.85
-7.332983 7.332983 697.000000 0.85
-7.322462 8.542872 696.000000 0.85
-7.322462 9.763282 696.000000 0.85
-7.322462 10.983693 696.000000 0.85
-7.322462 12.204103 696.000000 0.85
-7.322462 13.424513 696.000000 0.85
-7.322462 14.644924 696.000000 0.85
-7.332983 15.888129 697.000000 0.85
-7.332983 17.110293 697.000000 0.85
-7.332983 18.332457 697.000000 0.85
-7.343503 19.582676 698.000000 0.85
-7.343503 20.806593 698.000000 0.85
-7.343503 22.030510 698.000000 0.85
-7.343503 23.254427 698.000000 0.85
-7.343503 24.478345 698.000000 0.85
-7.364545 25.775907 700.000000 0.85
-7.364545 27.003332 700.000000 0.85
-7.364545 28.230756 700.000000 0.85
-7.364545 29.458180 700.000000 0.85
-7.364545 30.685604 700.000000 0.85
-7.364545 31.913028 700.000000 0.85
-7.375066 33.187796 701.000000 0.85
-7.375066 34.416974 701.000000 0.85
-7.396107 35.747852 703.000000 0.85
-7.406628 37.033140 704.000000 0.85
-7.406628 38.267578 704.000000 0.85
-7.427670 39.614238 706.000000 0.85
-7.438190 40.910047 707.000000 0.85
-7.448711 42.209363 708.000000 0.85
-7.448711 43.450815 708.000000 0.85
-7.469753 44.818517 710.000000 0.85
-7.480274 46.128353 711.000000 0.85
-7.501315 47.508329 713.000000 0.85
-7.511836 48.826933 714.000000 0.85
-7.532877 50.219183 716.000000 0.85
-7.532877 51.474662 716.000000 0.85
-7.543398 52.803787 717.000000 0.85
-7.564440 54.211818 719.000000 0.85
-7.574961 55.549711 720.000000 0.85
-7.596002 56.970016 722.000000 0.85
-7.596002 58.236016 722.000000 0.85
-9.942136 -35.791689 1134.000000 0.85
-6.470279 -21.998948 738.000000 0.85
-6.470279 -20.704892 738.000000 0.85
-6.470279 -19.410836 738.000000 0.85
-6.470279 -18.116781 738.000000 0.85
-6.470279 -16.822725 738.000000 0.85
-6.452744 -15.486586 736.000000 0.85
-6.452744 -14.196037 736.000000 0.85
-6.452744 -12.905488 736.000000 0.85
-6.452744 -11.614940 736.000000 0.85
-6.452744 -10.324391 736.000000 0.85
-6.189725 -8.665615 706.000000 0.85
-6.172190 -7.406628 704.000000 0.85
-6.172190 -6.172190 704.000000 0.85
-6.163423 -4.930738 703.000000 0.85
-6.145888 -3.687533 701.000000 0.85
-6.137121 -2.454848 700.000000 0.85
-6.137121 -1.227424 700.000000 0.85
-6.119586 0.000000 698.000000 0.85
-6.119586 1.223917 698.000000 0.85
-6.119586 2.447834 698.000000 0.85
-6.119586 3.671752 698.000000 0.85
-6.110819 4.888655 697.000000 0.85
-6.110819 6.110819 697.000000 0.85
-6.110819 7.332983 697.000000 0.85
-6.102052 8.542872 696.000000 0.85
-6.102052 9.763282 696.000000 0.85
-6.102052 10.983693 696.000000 0.85
-6.102052 12.204103 696.000000 0.85
-6.102052 13.424513 696.000000 0.85
-6.102052 14.644924 696.000000 0.85
-6.110819 15.888129 697.000000 0.85
-6.110819 17.110293 697.000000 0.85
-6.119586 18.358759 698.000000 0.85
-6.119586 19.582676 698.000000 0.85
-6.119586 20.806593 698.000000 0.85
-6.119586 22.030510 698.000000 0.85
-6.119586 23.254427 698.000000 0.85
-6.137121 24.548483 700.000000 0.85
-6.137121 25.775907 700.000000 0.85
-6.137121 27.003332 700.000000 0.85
-6.137121 28.230756 700.000000 0.85
-6.137121 29.458180 700.000000 0.85
-6.145888 30.729441 701.000000 0.85
-6.145888 31.958618 701.000000 0.85
-6.163423 33.282483 703.000000 0.85
-6.163423 34.515167 703.000000 0.85
-6.163423 35.747852 703.000000 0.85
-6.172190 37.033140 704.000000 0.85
-6.172190 38.267578 704.000000 0.85
-6.189725 39.614238 706.000000 0.85
-6.198492 40.910047 707.000000 0.85
-6.207259 42.209363 708.000000 0.85
-6.207259 43.450815 708.000000 0.85
-6.224794 44.818517 710.000000 0.85
-6.233561 46.128353 711.000000 0.85
-6.251096 47.508329 713.000000 0.85
-6.259863 48.826933 714.000000 0.85
-6.277398 50.219183 716.000000 0.85
-6.286165 51.546554 717.000000 0.85
-6.303700 52.951078 719.000000 0.85
-6.303700 54.211818 719.000000 0.85
-6.312467 55.549711 720.000000 0.85
-6.312467 56.812204 720.000000 0.85
-7.897598 -35.539190 1126.000000 0.85
-5.176223 -21.998948 738.000000 0.85
-5.176223 -20.704892 738.000000 0.85
-5.176223 -19.410836 738.000000 0.85
-5.176223 -18.116781 738.000000 0.85
-5.176223 -16.822725 738.000000 0.85
-5.162195 -15.486586 736.000000 0.85
-5.162195 -14.196037 736.000000 0.85
-5.162195 -12.905488 736.000000 0.85
-5.162195 -11.614940 736.000000 0.85
-5.162195 -10.324391 736.000000 0.85
-4.958794 -8.677889 707.000000 0.85
-4.951780 -7.427670 706.000000 0.85
-4.937752 -6.172190 704.000000 0.85
-4.930738 -4.930738 703.000000 0.85
-4.916711 -3.687533 701.000000 0.85
-4.909697 -2.454848 700.000000 0.85
-4.909697 -1.227424 700.000000 0.85
-4.909697 0.000000 700.000000 0.85
-4.895669 1.223917 698.000000 0.85
-4.895669 2.447834 698.000000 0.85
-4.895669 3.671752 698.000000 0.85
-4.895669 4.895669 698.000000 0.85
-4.888655 6.110819 697.000000 0.85
-4.888655 7.332983 697.000000 0.85
-4.888655 8.555146 697.000000 0.85
-4.881641 9.763282 696.000000 0.85
-4.881641 10.983693 696.000000 0.85
-4.881641 12.204103 696.000000 0.85
-4.881641 13.424513 696.000000 0.85
-4.881641 14.644924 696.000000 0.85
-4.888655 15.888129 697.000000 0.85
-4.888655 17.110293 697.000000 0.85
-4.895669 18.358759 698.000000 0.85
-4.895669 19.582676 698.000000 0.85
-4.895669 20.806593 698.000000 0.85
-4.895669 22.030510 698.000000 0.85
-4.895669 23.254427 698.000000 0.85
-4.909697 24.548483 700.000000 0.85
-4.909697 25.775907 700.000000 0.85
-4.909697 27.003332 700.000000 0.85
-4.916711 28.271085 701.000000 0.85
-4.916711 29.500263 701.000000 0.85
-4.916711 30.729441 701.000000 0.85
-4.930738 32.049798 703.000000 0.85
-4.930738 33.282483 703.000000 0.85
-4.930738 34.515167 703.000000 0.85
-4.930738 35.747852 703.000000 0.85
-4.937752 37.033140 704.000000 0.85
-4.951780 38.376293 706.000000 0.85
-4.951780 39.614238 706.000000 0.85
-4.958794 40.910047 707.000000 0.85
-4.965807 42.209363 708.000000 0.85
-4.979835 43.573558 710.000000 0.85
-4.986849 44.881641 711.000000 0.85
-4.986849 46.128353 711.000000 0.85
-5.000877 47.508329 713.000000 0.85
-5.007891 48.826933 714.000000 0.85
-5.021918 50.219183 716.000000 0.85
-5.028932 51.546554 717.000000 0.85
-5.042960 52.951078 719.000000 0.85
-5.042960 54.211818 719.000000 0.85
-5.049974 55.549711 720.000000 0.85
-3.882167 -21.998948 738.000000 0.85
-3.871647 -20.648781 736.000000 0.85
-3.871647 -19.358233 736.000000 0.85
-3.871647 -18.067684 736.000000 0.85
-3.882167 -16.822725 738.000000 0.85
-3.871647 -15.486586 736.000000 0.85
-3.871647 -14.196037 736.000000 0.85
-3.882167 -12.940558 738.000000 0.85
-3.882167 -11.646502 738.000000 0.85
-3.871647 -10.324391 736.000000 0.85
-3.719095 -8.677889 707.000000 0.85
-3.713835 -7.427670 706.000000 0.85
-3.713835 -6.189725 706.000000 0.85
-3.698054 -4.930738 703.000000 0.85
-3.687533 -3.687533 701.000000 0.85
-3.687533 -2.458355 701.000000 0.85
-3.682272 -1.227424 700.000000 0.85
-3.682272 0.000000 700.000000 0.85
-3.682272 1.227424 700.000000 0.85
-3.671752 2.447834 698.000000 0.85
-3.671752 3.671752 698.000000 0.85
-3.671752 4.895669 698.000000 0.85
-3.671752 6.119586 698.000000 0.85
-3.666491 7.332983 697.000000 0.85
-3.666491 8.555146 697.000000 0.85
-3.666491 9.777310 697.000000 0.85
-3.666491 10.999474 697.000000 0.85
-3.661231 12.204103 696.000000 0.85
-3.661231 13.424513 696.000000 0.85
-3.661231 14.644924 696.000000 0.85
-3.666491 15.888129 697.000000 0.85
-3.666491 17.110293 697.000000 0.85
-3.671752 18.358759 698.000000 0.85
-3.671752 19.582676 698.000000 0.85
-3.671752 20.806593 698.000000 0.85
-3.671752 22.030510 698.000000 0.85
-3.682272 23.321059 700.000000 0.85
-3.682272 24.548483 700.000000 0.85
-3.682272 25.775907 700.000000 0.85
-3.682272 27.003332 700.000000 0.85
-3.687533 28.271085 701.000000 0.85
-3.687533 29.500263 701.000000 0.85
-3.698054 30.817114 703.000000 0.85
-3.698054 32.049798 703.000000 0.85
-3.698054 33.282483 703.000000 0.85
-3.703314 34.564264 704.000000 0.85
-3.703314 35.798702 704.000000 0.85
-3.703314 37.033140 704.000000 0.85
-3.713835 38.376293 706.000000 0.85
-3.713835 39.614238 706.000000 0.85
-3.724356 40.967912 708.000000 0.85
-3.734876 42.328599 710.000000 0.85
-3.734876 43.573558 710.000000 0.85
-3.740137 44.881641 711.000000 0.85
-3.750658 46.258110 713.000000 0.85
-3.755918 47.574961 714.000000 0.85
-3.766439 48.963703 716.000000 0.85
-3.766439 50.219183 716.000000 0.85
-3.771699 51.546554 717.000000 0.85
-3.782220 52.951078 719.000000 0.85
-3.787480 54.287217 720.000000 0.85
-3.798001 55.704015 722.000000 0.85
-3.948799 -33.564790 1126.000000 0.85
-2.581098 -20.648781 736.000000 0.85
-2.581098 -19.358233 736.000000 0.85
-2.581098 -18.067684 736.000000 0.85
-2.588112 -16.822725 738.000000 0.85
-2.588112 -15.528669 738.000000 0.85
-2.588112 -14.234613 738.000000 0.85
-2.588112 -12.940558 738.000000 0.85
-2.588112 -11.646502 738.000000 0.85
-2.479397 -9.917587 707.000000 0.85
-2.479397 -8.677889 707.000000 0.85
-2.479397 -7.438190 707.000000 0.85
-2.475890 -6.189725 706.000000 0.85
-2.465369 -4.930738 703.000000 0.85
-2.458355 -3.687533 701.000000 0.85
-2.458355 -2.458355 701.000000 0.85
-2.454848 -1.227424 700.000000 0.85
-2.454848 0.000000 700.000000 0.85
-2.454848 1.227424 700.000000 0.85
-2.447834 2.447834 698.000000 0.85
-2.447834 3.671752 698.000000 0.85
-2.447834 4.895669 698.000000 0.85
-2.447834 6.119586 698.000000 0.85
-2.447834 7.343503 698.000000 0.85
-2.444328 8.555146 697.000000 0.85
-2.444328 9.777310 697.000000 0.85
-2.444328 10.999474 697.000000 0.85
-2.444328 12.221638 697.000000 0.85
-2.444328 13.443802 697.000000 0.85
-2.444328 14.665965 697.000000 0.85
-2.444328 15.888129 697.000000 0.85
-2.444328 17.110293 697.000000 0.85
-2.447834 18.358759 698.000000 0.85
-2.447834 19.582676 698.000000 0.85
-2.454848 20.866211 700.000000 0.85
-2.454848 22.093635 700.000000 0.85
-2.454848 23.321059 700.000000 0.85
-2.454848 24.548483 700.000000 0.85
-2.454848 25.775907 700.000000 0.85
-2.454848 27.003332 700.000000 0.85
-2.458355 28.271085 701.000000 0.85
-2.458355 29.500263 701.000000 0.85
-2.465369 30.817114 703.000000 0.85
-2.465369 32.049798 703.000000 0.85
-2.465369 33.282483 703.000000 0.85
-2.468876 34.564264 704.000000 0.85
-2.468876 35.798702 704.000000 0.85
-2.475890 37.138348 706.000000 0.85
-2.475890 38.376293 706.000000 0.85
-2.479397 39.670349 707.000000 0.85
-2.482904 40.967912 708.000000 0.85
-2.489918 42.328599 710.000000 0.85
-2.489918 43.573558 710.000000 0.85
-2.493425 44.881641 711.000000 0.85
-2.500438 46.258110 713.000000 0.85
-2.503945 47.574961 714.000000 0.85
-2.510959 48.963703 716.000000 0.85
-2.514466 50.289321 717.000000 0.85
-2.521480 51.690338 719.000000 0.85
-2.524987 53.024724 720.000000 0.85
-2.532001 54.438015 722.000000 0.85
-2.535508 55.781168 723.000000 0.85
-1.974399 -33.564790 1126.000000 0.85
-1.290549 -20.648781 736.000000 0.85
-1.290549 -19.358233 736.000000 0.85
-1.290549 -18.067684 736.000000 0.85
-1.294056 -16.822725 738.000000 0.85
-1.294056 -15.528669 738.000000 0.85
-1.294056 -14.234613 738.000000 0.85
-1.294056 -12.940558 738.000000 0.85
-1.294056 -11.646502 738.000000 0.85
-1.239698 -9.917587 707.000000 0.85
-1.239698 -8.677889 707.000000 0.85
-1.237945 -7.427670 706.000000 0.85
-1.234438 -6.172190 704.000000 0.85
-1.232685 -4.930738 703.000000 0.85
-1.229178 -3.687533 701.000000 0.85
-1.229178 -2.458355 701.000000 0.85
-1.227424 -1.227424 700.000000 0.85
-1.227424 0.000000 700.000000 0.85
-1.227424 1.227424 700.000000 0.85
-1.227424 2.454848 700.000000 0.85
-1.227424 3.682272 700.000000 0.85
-1.223917 4.895669 698.000000 0.85
-1.223917 6.119586 698.000000 0.85
-1.223917 7.343503 698.000000 0.85
-1.223917 8.567421 698.000000 0.85
-1.222164 9.777310 697.000000 0.85
-1.222164 10.999474 697.000000 0.85
-1.222164 12.221638 697.000000 0.85
-1.222164 13.443802 697.000000 0.85
-1.222164 14.665965 697.000000 0.85
-1.223917 15.910924 698.000000 0.85
-1.223917 17.134841 698.000000 0.85
-1.223917 18.358759 698.000000 0.85
-1.227424 19.638787 700.000000 0.85
-1.227424 20.866211 700.000000 0.85
-1.227424 22.093635 700.000000 0.85
-1.227424 23.321059 700.000000 0.85
-1.227424 24.548483 700.000000 0.85
-1.227424 25.775907 700.000000 0.85
-1.229178 27.041908 701.000000 0.85
-1.229178 28.271085 701.000000 0.85
-1.229178 29.500263 701.000000 0.85
-1.232685 30.817114 703.000000 0.85
-1.232685 32.049798 703.000000 0.85
-1.234438 33.329826 704.000000 0.85
-1.234438 34.564264 704.000000 0.85
-1.234438 35.798702 704.000000 0.85
-1.237945 37.138348 706.000000 0.85
-1.237945 38.376293 706.000000 0.85
-1.239698 39.670349 707.000000 0.85
-1.244959 41.083640 710.000000 0.85
-1.244959 42.328599 710.000000 0.85
-1.246712 43.634929 711.000000 0.85
-1.246712 44.881641 711.000000 0.85
-1.250219 46.258110 713.000000 0.85
-1.251973 47.574961 714.000000 0.85
-1.255480 48.963703 716.000000 0.85
-1.257233 50.289321 717.000000 0.85
-1.260740 51.690338 719.000000 0.85
-1.266000 53.172015 722.000000 0.85
-1.266000 54.438015 722.000000 0.85
-1.267754 55.781168 723.000000 0.85
0.000000 -33.564790 1126.000000 0.85
0.000000 -20.704892 738.000000 0.85
0.000000 -19.358233 736.000000 0.85
0.000000 -18.067684 736.000000 0.85
0.000000 -16.731545 734.000000 0.85
0.000000 -15.444503 734.000000 0.85
0.000000 -14.234613 738.000000 0.85
0.000000 -12.940558 738.000000 0.85
0.000000 -11.173067 708.000000 0.85
0.000000 -9.903560 706.000000 0.85
0.000000 -8.665615 706.000000 0.85
0.000000 -7.427670 706.000000 0.85
0.000000 -6.172190 704.000000 0.85
0.000000 -4.937752 704.000000 0.85
0.000000 -3.698054 703.000000 0.85
0.000000 -2.458355 701.000000 0.85
0.000000 -1.229178 701.000000 0.85
0.000000 0.000000 700.000000 0.85
0.000000 1.227424 700.000000 0.85
0.000000 2.454848 700.000000 0.85
0.000000 3.682272 700.000000 0.85
0.000000 4.895669 698.000000 0.85
0.000000 6.119586 698.000000 0.85
0.000000 7.343503 698.000000 0.85
0.000000 8.567421 698.000000 0.85
0.000000 9.791338 698.000000 0.85
0.000000 11.015255 698.000000 0.85
0.000000 12.239172 698.000000 0.85
0.000000 13.463090 698.000000 0.85
0.000000 14.687007 698.000000 0.85
0.000000 15.910924 698.000000 0.85
0.000000 17.134841 698.000000 0.85
0.000000 18.358759 698.000000 0.85
0.000000 19.638787 700.000000 0.85
0.000000 20.866211 700.000000 0.85
0.000000 22.093635 700.000000 0.85
0.000000 23.321059 700.000000 0.85
0.000000 24.583553 701.000000 0.85
0.000000 25.812730 701.000000 0.85
0.000000 27.041908 701.000000 0.85
0.000000 28.271085 701.000000 0.85
0.000000 29.584429 703.000000 0.85
0.000000 30.817114 703.000000 0.85
0.000000 32.095388 704.000000 0.85
0.000000 33.329826 704.000000 0.85
0.000000 34.564264 704.000000 0.85
0.000000 35.900403 706.000000 0.85
0.000000 37.138348 706.000000 0.85
0.000000 38.430651 707.000000 0.85
0.000000 39.726460 708.000000 0.85
0.000000 41.083640 710.000000 0.85
0.000000 42.328599 710.000000 0.85
0.000000 43.634929 711.000000 0.85
0.000000 44.881641 711.000000 0.85
0.000000 46.258110 713.000000 0.85
0.000000 47.708224 716.000000 0.85
0.000000 49.032088 717.000000 0.85
0.000000 50.429598 719.000000 0.85
0.000000 51.906014 722.000000 0.85
0.000000 53.245660 723.000000 0.85
0.000000 54.513414 723.000000 0.85
0.000000 55.935473 725.000000 0.85
1.294056 -20.704892 738.000000 0.85
1.290549 -19.358233 736.000000 0.85
1.290549 -18.067684 736.000000 0.85
1.287042 -16.731545 734.000000 0.85
1.287042 -15.444503 734.000000 0.85
1.294056 -14.234613 738.000000 0.85
1.246712 -12.467123 711.000000 0.85
1.241452 -11.173067 708.000000 0.85
1.237945 -9.903560 706.000000 0.85
1.237945 -8.665615 706.000000 0.85
1.239698 -7.438190 707.000000 0.85
1.237945 -6.189725 706.000000 0.85
1.234438 -4.937752 704.000000 0.85
1.234438 -3.703314 704.000000 0.85
1.232685 -2.465369 703.000000 0.85
1.229178 -1.229178 701.000000 0.85
1.229178 0.000000 701.000000 0.85
1.227424 1.227424 700.000000 0.85
1.227424 2.454848 700.000000 0.85
1.227424 3.682272 700.000000 0.85
1.227424 4.909697 700.000000 0.85
1.223917 6.119586 698.000000 0.85
1.223917 7.343503 698.000000 0.85
1.223917 8.567421 698.000000 0.85
1.223917 9.791338 698.000000 0.85
1.223917 11.015255 698.000000 0.85
1.223917 12.239172 698.000000 0.85
1.223917 13.463090 698.000000 0.85
1.223917 14.687007 698.000000 0.85
1.223917 15.910924 698.000000 0.85
1.223917 17.134841 698.000000 0.85
1.223917 18.358759 698.000000 0.85
1.227424 19.638787 700.000000 0.85
1.227424 20.866211 700.000000 0.85
1.229178 22.125197 701.000000 0.85
1.229178 23.354375 701.000000 0.85
1.229178 24.583553 701.000000 0.85
1.232685 25.886376 703.000000 0.85
1.232685 27.119060 703.000000 0.85
1.232685 28.351745 703.000000 0.85
1.232685 29.584429 703.000000 0.85
1.234438 30.860950 704.000000 0.85
1.234438 32.095388 704.000000 0.85
1.234438 33.329826 704.000000 0.85
1.234438 34.564264 704.000000 0.85
1.237945 35.900403 706.000000 0.85
1.237945 37.138348 706.000000 0.85
1.239698 38.430651 707.000000 0.85
1.244959 39.838681 710.000000 0.85
1.246712 41.141504 711.000000 0.85
1.246712 42.388217 711.000000 0.85
1.246712 43.634929 711.000000 0.85
1.250219 45.007891 713.000000 0.85
1.251973 46.322988 714.000000 0.85
1.257233 47.774855 717.000000 0.85
1.260740 49.168858 719.000000 0.85
1.266000 50.640014 722.000000 0.85
1.267754 51.977906 723.000000 0.85
1.267754 53.245660 723.000000 0.85
1.271261 54.664212 725.000000 0.85
3.962827 -31.702613 1130.000000 0.85
2.581098 -19.358233 736.000000 0.85
2.581098 -18.067684 736.000000 0.85
2.574084 -16.731545 734.000000 0.85
2.574084 -15.444503 734.000000 0.85
2.493425 -13.713835 711.000000 0.85
2.493425 -12.467123 711.000000 0.85
2.482904 -11.173067 708.000000 0.85
2.479397 -9.917587 707.000000 0.85
2.479397 -8.677889 707.000000 0.85
2.479397 -7.438190 707.000000 0.85
2.475890 -6.189725 706.000000 0.85
2.468876 -4.937752 704.000000 0.85
2.468876 -3.703314 704.000000 0.85
2.465369 -2.465369 703.000000 0.85
2.465369 -1.232685 703.000000 0.85
2.465369 0.000000 703.000000 0.85
2.458355 1.229178 701.000000 0.85
2.454848 2.454848 700.000000 0.85
2.454848 3.682272 700.000000 0.85
2.454848 4.909697 700.000000 0.85
2.454848 6.137121 700.000000 0.85
2.447834 7.343503 698.000000 0.85
2.447834 8.567421 698.000000 0.85
2.447834 9.791338 698.000000 0.85
2.447834 11.015255 698.000000 0.85
2.447834 12.239172 698.000000 0.85
2.447834 13.463090 698.000000 0.85
2.447834 14.687007 698.000000 0.85
2.447834 15.910924 698.000000 0.85
2.447834 17.134841 698.000000 0.85
2.454848 18.411362 700.000000 0.85
2.454848 19.638787 700.000000 0.85
2.454848 20.866211 700.000000 0.85
2.458355 22.125197 701.000000 0.85
2.458355 23.354375 701.000000 0.85
2.465369 24.653691 703.000000 0.85
2.465369 25.886376 703.000000 0.85
2.465369 27.119060 703.000000 0.85
2.465369 28.351745 703.000000 0.85
2.468876 29.626512 704.000000 0.85
2.468876 30.860950 704.000000 0.85
2.468876 32.095388 704.000000 0.85
2.468876 33.329826 704.000000 0.85
2.475890 34.662458 706.000000 0.85
2.475890 35.900403 706.000000 0.85
2.479397 37.190952 707.000000 0.85
2.489918 38.593723 710.000000 0.85
2.493425 39.894792 711.000000 0.85
2.493425 41.141504 711.000000 0.85
2.500438 42.507452 713.000000 0.85
2.503945 43.819043 714.000000 0.85
2.510959 45.197265 716.000000 0.85
2.510959 46.452744 716.000000 0.85
2.514466 47.774855 717.000000 0.85
2.524987 49.237244 720.000000 0.85
2.532001 50.640014 722.000000 0.85
2.535508 51.977906 723.000000 0.85
2.535508 53.245660 723.000000 0.85
2.549535 54.815010 727.000000 0.85
5.944240 -31.702613 1130.000000 0.85
3.871647 -19.358233 736.000000 0.85
3.871647 -18.067684 736.000000 0.85
3.771699 -16.344029 717.000000 0.85
3.771699 -15.086796 717.000000 0.85
3.771699 -13.829563 717.000000 0.85
3.740137 -12.467123 711.000000 0.85
3.724356 -11.173067 708.000000 0.85
3.719095 -9.917587 707.000000 0.85
3.719095 -8.677889 707.000000 0.85
3.719095 -7.438190 707.000000 0.85
3.713835 -6.189725 706.000000 0.85
3.703314 -4.937752 704.000000 0.85
3.703314 -3.703314 704.000000 0.85
3.703314 -2.468876 704.000000 0.85
3.703314 -1.234438 704.000000 0.85
3.698054 0.000000 703.000000 0.85
3.687533 1.229178 701.000000 0.85
3.687533 2.458355 701.000000 0.85
3.687533 3.687533 701.000000 0.85
3.682272 4.909697 700.000000 0.85
3.682272 6.137121 700.000000 0.85
3.671752 7.343503 698.000000 0.85
3.671752 8.567421 698.000000 0.85
3.671752 9.791338 698.000000 0.85
3.671752 11.015255 698.000000 0.85
3.671752 12.239172 698.000000 0.85
3.671752 13.463090 698.000000 0.85
3.671752 14.687007 698.000000 0.85
3.671752 15.910924 698.000000 0.85
3.682272 17.183938 700.000000 0.85
3.682272 18.411362 700.000000 0.85
3.682272 19.638787 700.000000 0.85
3.687533 20.896020 701.000000 0.85
3.687533 22.125197 701.000000 0.85
3.687533 23.354375 701.000000 0.85
3.698054 24.653691 703.000000 0.85
3.698054 25.886376 703.000000 0.85
3.698054 27.119060 703.000000 0.85
3.698054 28.351745 703.000000 0.85
3.703314 29.626512 704.000000 0.85
3.703314 30.860950 704.000000 0.85
3.703314 32.095388 704.000000 0.85
3.713835 33.424513 706.000000 0.85
3.713835 34.662458 706.000000 0.85
3.719095 35.951254 707.000000 0.85
3.734876 37.348764 710.000000 0.85
3.734876 38.593723 710.000000 0.85
3.740137 39.894792 711.000000 0.85
3.750658 41.257233 713.000000 0.85
3.750658 42.507452 713.000000 0.85
3.766439 43.941785 716.000000 0.85
3.766439 45.197265 716.000000 0.85
3.771699 46.517622 717.000000 0.85
3.782220 47.908119 719.000000 0.85
3.798001 49.374014 722.000000 0.85
3.803261 50.710153 723.000000 0.85
3.813782 52.121690 725.000000 0.85
3.824303 53.540242 727.000000 0.85
7.953709 -31.814834 1134.000000 0.85
5.162195 -19.358233 736.000000 0.85
5.162195 -18.067684 736.000000 0.85
5.028932 -16.344029 717.000000 0.85
5.028932 -15.086796 717.000000 0.85
5.028932 -13.829563 717.000000 0.85
4.986849 -12.467123 711.000000 0.85
4.979835 -11.204629 710.000000 0.85
4.979835 -9.959670 710.000000 0.85
4.979835 -8.714712 710.000000 0.85
4.958794 -7.438190 707.000000 0.85
4.951780 -6.189725 706.000000 0.85
4.951780 -4.951780 706.000000 0.85
4.937752 -3.703314 704.000000 0.85
4.937752 -2.468876 704.000000 0.85
4.937752 -1.234438 704.000000 0.85
4.937752 0.000000 704.000000 0.85
4.930738 1.232685 703.000000 0.85
4.930738 2.465369 703.000000 0.85
4.930738 3.698054 703.000000 0.85
4.916711 4.916711 701.000000 0.85
4.909697 6.137121 700.000000 0.85
4.909697 7.364545 700.000000 0.85
4.909697 8.591969 700.000000 0.85
4.909697 9.819393 700.000000 0.85
4.909697 11.046817 700.000000 0.85
4.909697 12.274242 700.000000 0.85
4.909697 13.501666 700.000000 0.85
4.909697 14.729090 700.000000 0.85
4.909697 15.956514 700.000000 0.85
4.909697 17.183938 700.000000 0.85
4.909697 18.411362 700.000000 0.85
4.916711 19.666842 701.000000 0.85
4.916711 20.896020 701.000000 0.85
4.930738 22.188322 703.000000 0.85
4.930738 23.421006 703.000000 0.85
4.930738 24.653691 703.000000 0.85
4.930738 25.886376 703.000000 0.85
4.937752 27.157636 704.000000 0.85
4.937752 28.392074 704.000000 0.85
4.937752 29.626512 704.000000 0.85
4.937752 30.860950 704.000000 0.85
4.937752 32.095388 704.000000 0.85
4.951780 33.424513 706.000000 0.85
4.951780 34.662458 706.000000 0.85
4.958794 35.951254 707.000000 0.85
4.979835 37.348764 710.000000 0.85
4.986849 38.648080 711.000000 0.85
4.986849 39.894792 711.000000 0.85
5.000877 41.257233 713.000000 0.85
5.021918 42.686305 716.000000 0.85
5.028932 44.003156 717.000000 0.85
5.042960 45.386639 719.000000 0.85
5.049974 46.712257 720.000000 0.85
5.064001 48.108013 722.000000 0.85
5.071015 49.442399 723.000000 0.85
5.071015 50.710153 723.000000 0.85
5.071015 51.977906 723.000000 0.85
5.071015 53.245660 723.000000 0.85
6.452744 -19.358233 736.000000 0.85
6.452744 -18.067684 736.000000 0.85
6.286165 -16.344029 717.000000 0.85
6.286165 -15.086796 717.000000 0.85
6.286165 -13.829563 717.000000 0.85
6.251096 -12.502192 713.000000 0.85
6.224794 -11.204629 710.000000 0.85
6.224794 -9.959670 710.000000 0.85
6.224794 -8.714712 710.000000 0.85
6.198492 -7.438190 707.000000 0.85
6.189725 -6.189725 706.000000 0.85
6.189725 -4.951780 706.000000 0.85
6.172190 -3.703314 704.000000 0.85
6.172190 -2.468876 704.000000 0.85
6.172190 -1.234438 704.000000 0.85
6.172190 0.000000 704.000000 0.85
6.163423 1.232685 703.000000 0.85
6.163423 2.465369 703.000000 0.85
6.163423 3.698054 703.000000 0.85
6.145888 4.916711 701.000000 0.85
6.145888 6.145888 701.000000 0.85
6.137121 7.364545 700.000000 0.85
6.137121 8.591969 700.000000 0.85
6.137121 9.819393 700.000000 0.85
6.137121 11.046817 700.000000 0.85
6.137121 12.274242 700.000000 0.85
6.137121 13.501666 700.000000 0.85
6.137121 14.729090 700.000000 0.85
6.137121 15.956514 700.000000 0.85
6.145888 17.208487 701.000000 0.85
6.145888 18.437664 701.000000 0.85
6.163423 19.722953 703.000000 0.85
6.163423 20.955637 703.000000 0.85
6.163423 22.188322 703.000000 0.85
6.172190 23.454322 704.000000 0.85
6.172190 24.688760 704.000000 0.85
6.172190 25.923198 704.000000 0.85
6.172190 27.157636 704.000000 0.85
6.172190 28.392074 704.000000 0.85
6.172190 29.626512 704.000000 0.85
6.189725 30.948624 706.000000 0.85
6.189725 32.186568 706.000000 0.85
6.207259 33.519200 708.000000 0.85
6.224794 34.858846 710.000000 0.85
6.224794 36.103805 710.000000 0.85
6.233561 37.401368 711.000000 0.85
6.251096 38.756795 713.000000 0.85
6.251096 40.007014 713.000000 0.85
6.277398 41.430826 716.000000 0.85
6.286165 42.745923 717.000000 0.85
6.303700 44.125899 719.000000 0.85
6.312467 45.449763 720.000000 0.85
6.330002 46.842013 722.000000 0.85
6.330002 48.108013 722.000000 0.85
6.338769 49.442399 723.000000 0.85
6.330002 50.640014 722.000000 0.85
6.330002 51.906014 722.000000 0.85
11.972646 -29.931615 1138.000000 0.85
7.743293 -18.067684 736.000000 0.85
7.543398 -16.344029 717.000000 0.85
7.543398 -15.086796 717.000000 0.85
7.543398 -13.829563 717.000000 0.85
7.501315 -12.502192 713.000000 0.85
7.480274 -11.220410 711.000000 0.85
7.480274 -9.973698 711.000000 0.85
7.469753 -8.714712 710.000000 0.85
7.448711 -7.448711 708.000000 0.85
7.427670 -6.189725 706.000000 0.85
7.427670 -4.951780 706.000000 0.85
7.406628 -3.703314 704.000000 0.85
7.406628 -2.468876 704.000000 0.85
7.406628 -1.234438 704.000000 0.85
7.406628 0.000000 704.000000 0.85
7.406628 1.234438 704.000000 0.85
7.406628 2.468876 704.000000 0.85
7.396107 3.698054 703.000000 0.85
7.396107 4.930738 703.000000 0.85
7.375066 6.145888 701.000000 0.85
7.375066 7.375066 701.000000 0.85
7.375066 8.604243 701.000000 0.85
7.375066 9.833421 701.000000 0.85
7.375066 11.062599 701.000000 0.85
7.375066 12.291776 701.000000 0.85
7.375066 13.520954 701.000000 0.85
7.375066 14.750132 701.000000 0.85
7.396107 16.024899 703.000000 0.85
7.396107 17.257584 703.000000 0.85
7.396107 18.490268 703.000000 0.85
7.396107 19.722953 703.000000 0.85
7.406628 20.985446 704.000000 0.85
7.406628 22.219884 704.000000 0.85
7.406628 23.454322 704.000000 0.85
7.406628 24.688760 704.000000 0.85
7.406628 25.923198 704.000000 0.85
7.427670 27.234789 706.000000 0.85
7.427670 28.472734 706.000000 0.85
7.427670 29.710679 706.000000 0.85
7.438190 30.992460 707.000000 0.85
7.438190 32.232159 707.000000 0.85
7.448711 33.519200 708.000000 0.85
7.469753 34.858846 710.000000 0.85
7.480274 36.154655 711.000000 0.85
7.501315 37.506575 713.000000 0.85
7.511836 38.811152 714.000000 0.85
7.532877 40.175346 716.000000 0.85
7.543398 41.488690 717.000000 0.85
7.564440 42.865159 719.000000 0.85
7.574961 44.187270 720.000000 0.85
7.596002 45.576013 722.000000 0.85
7.596002 46.842013 722.000000 0.85
7.606523 48.174645 723.000000 0.85
7.606523 49.442399 723.000000 0.85
7.596002 50.640014 722.000000 0.85
13.968087 -29.931615 1138.000000 0.85
8.837454 -17.674908 720.000000 0.85
8.837454 -16.412415 720.000000 0.85
8.837454 -15.149921 720.000000 0.85
8.800631 -13.829563 717.000000 0.85
8.763809 -12.519726 714.000000 0.85
8.751534 -11.251973 713.000000 0.85
8.726986 -9.973698 711.000000 0.85
8.726986 -8.726986 711.000000 0.85
8.714712 -7.469753 710.000000 0.85
8.677889 -6.198492 707.000000 0.85
8.665615 -4.951780 706.000000 0.85
8.665615 -3.713835 706.000000 0.85
8.665615 -2.475890 706.000000 0.85
8.641066 -1.234438 704.000000 0.85
8.641066 0.000000 704.000000 0.85
8.641066 1.234438 704.000000 0.85
8.641066 2.468876 704.000000 0.85
8.628792 3.698054 703.000000 0.85
8.628792 4.930738 703.000000 0.85
8.628792 6.163423 703.000000 0.85
8.604243 7.375066 701.000000 0.85
8.604243 8.604243 701.000000 0.85
8.604243 9.833421 701.000000 0.85
8.628792 11.094161 703.000000 0.85
8.628792 12.326846 703.000000 0.85
8.628792 13.559530 703.000000 0.85
8.628792 14.792215 703.000000 0.85
8.641066 16.047694 704.000000 0.85
8.641066 17.282132 704.000000 0.85
8.641066 18.516570 704.000000 0.85
8.641066 19.751008 704.000000 0.85
8.641066 20.985446 704.000000 0.85
8.641066 22.219884 704.000000 0.85
8.641066 23.454322 704.000000 0.85
8.641066 24.688760 704.000000 0.85
8.665615 25.996844 706.000000 0.85
8.665615 27.234789 706.000000 0.85
8.677889 28.513063 707.000000 0.85
8.677889 29.752762 707.000000 0.85
8.690163 31.036297 708.000000 0.85
8.690163 32.277749 708.000000 0.85
8.714712 33.613887 710.000000 0.85
8.726986 34.907943 711.000000 0.85
8.751534 36.256356 713.000000 0.85
8.763809 37.559179 714.000000 0.85
8.788357 38.919867 716.000000 0.85
8.788357 40.175346 716.000000 0.85
8.825180 41.604419 719.000000 0.85
8.837454 42.924776 720.000000 0.85
8.862002 44.310012 722.000000 0.85
8.862002 45.576013 722.000000 0.85
8.862002 46.842013 722.000000 0.85
8.874277 48.174645 723.000000 0.85
10.128003 -17.724005 722.000000 0.85
10.128003 -16.458005 722.000000 0.85
10.128003 -15.192004 722.000000 0.85
10.057864 -13.829563 717.000000 0.85
10.043837 -12.554796 716.000000 0.85
10.015781 -11.267754 714.000000 0.85
10.015781 -10.015781 714.000000 0.85
9.973698 -8.726986 711.000000 0.85
9.959670 -7.469753 710.000000 0.85
9.931615 -6.207259 708.000000 0.85
9.917587 -4.958794 707.000000 0.85
9.903560 -3.713835 706.000000 0.85
9.903560 -2.475890 706.000000 0.85
9.875504 -1.234438 704.000000 0.85
9.875504 0.000000 704.000000 0.85
9.875504 1.234438 704.000000 0.85
9.875504 2.468876 704.000000 0.85
9.875504 3.703314 704.000000 0.85
9.875504 4.937752 704.000000 0.85
9.861476 6.163423 703.000000 0.85
9.861476 7.396107 703.000000 0.85
9.833421 8.604243 701.000000 0.85
9.833421 9.833421 701.000000 0.85
9.861476 11.094161 703.000000 0.85
9.861476 12.326846 703.000000 0.85
9.861476 13.559530 703.000000 0.85
9.875504 14.813256 704.000000 0.85
9.875504 16.047694 704.000000 0.85
9.875504 17.282132 704.000000 0.85
9.875504 18.516570 704.000000 0.85
9.875504 19.751008 704.000000 0.85
9.875504 20.985446 704.000000 0.85
9.875504 22.219884 704.000000 0.85
9.903560 23.520954 706.000000 0.85
9.903560 24.758899 706.000000 0.85
9.903560 25.996844 706.000000 0.85
9.917587 27.273365 707.000000 0.85
9.917587 28.513063 707.000000 0.85
9.917587 29.752762 707.000000 0.85
9.931615 31.036297 708.000000 0.85
9.959670 32.368929 710.000000 0.85
9.959670 33.613887 710.000000 0.85
9.973698 34.907943 711.000000 0.85
10.001753 36.256356 713.000000 0.85
10.043837 37.664387 716.000000 0.85
