ply
format ascii 1.0
comment
element vertex 1260
property float32 x
property float32 y
property float32 z
property float intensity
element face 0
property list uchar int vertex_indices
end_header
-30.685604 30.685604 700.000000 0.85
-30.685604 31.913028 700.000000 0.85
-30.729441 33.187796 701.000000 0.85
-30.729441 34.416974 701.000000 0.85
-30.817114 35.747852 703.000000 0.85
-30.860950 37.033140 704.000000 0.85
-30.948624 38.376293 706.000000 0.85
-30.992460 39.670349 707.000000 0.85
-31.036297 40.967912 708.000000 0.85
-31.036297 42.209363 708.000000 0.85
-31.036297 43.450815 708.000000 0.85
-31.123970 44.818517 710.000000 0.85
-31.123970 46.063475 710.000000 0.85
-31.167806 47.375066 711.000000 0.85
-31.255480 48.758548 713.000000 0.85
-31.255480 50.008767 713.000000 0.85
-32.877433 53.918990 750.000000 0.85
-47.553919 -35.665439 1130.000000 0.85
-30.846923 -21.849904 733.000000 0.85
-30.846923 -20.564615 733.000000 0.85
-30.762756 -19.226723 731.000000 0.85
-30.762756 -17.944941 731.000000 0.85
-30.636507 -16.594775 728.000000 0.85
-30.636507 -15.318254 728.000000 0.85
-30.594424 -14.022444 727.000000 0.85
-30.594424 -12.747677 727.000000 0.85
-30.594424 -11.472909 727.000000 0.85
-29.374014 -9.791338 698.000000 0.85
-29.374014 -8.567421 698.000000 0.85
-29.458180 -7.364545 700.000000 0.85
-29.500263 -6.145888 701.000000 0.85
-29.500263 -4.916711 701.000000 0.85
-29.500263 -3.687533 701.000000 0.85
-29.500263 -2.458355 701.000000 0.85
-29.458180 -1.227424 700.000000 0.85
-29.374014 0.000000 698.000000 0.85
-29.374014 1.223917 698.000000 0.85
-29.374014 2.447834 698.000000 0.85
-29.374014 3.671752 698.000000 0.85
-29.331931 4.888655 697.000000 0.85
-29.331931 6.110819 697.000000 0.85
-29.331931 7.332983 697.000000 0.85
-29.331931 8.555146 697.000000 0.85
-29.331931 9.777310 697.000000 0.85
-29.331931 10.999474 697.000000 0.85
-29.331931 12.221638 697.000000 0.85
-29.331931 13.443802 697.000000 0.85
-29.331931 14.665965 697.000000 0.85
-29.331931 15.888129 697.000000 0.85
-29.331931 17.110293 697.000000 0.85
-29.331931 18.332457 697.000000 0.85
-29.331931 19.554620 697.000000 0.85
-29.331931 20.776784 697.000000 0.85
-29.374014 22.030510 698.000000 0.85
-29.374014 23.254427 698.000000 0.85
-29.374014 24.478345 698.000000 0.85
-29.374014 25.702262 698.000000 0.85
-29.374014 26.926179 698.000000 0.85
-29.374014 28.150096 698.000000 0.85
-29.374014 29.374014 698.000000 0.85
-29.458180 30.685604 700.000000 0.85
-29.458180 31.913028 700.000000 0.85
-29.458180 33.140452 700.000000 0.85
-29.500263 34.416974 701.000000 0.85
-29.500263 35.646151 701.000000 0.85
-29.584429 36.980537 703.000000 0.85
-29.626512 38.267578 704.000000 0.85
-29.710679 39.614238 706.000000 0.85
-29.752762 40.910047 707.000000 0.85
-29.794845 42.209363 708.000000 0.85
-29.794845 43.450815 708.000000 0.85
-29.794845 44.692267 708.000000 0.85
-29.794845 45.933719 708.000000 0.85
-29.879011 47.308434 710.000000 0.85
-29.879011 48.553393 710.000000 0.85
-30.005260 50.008767 713.000000 0.85
-30.047344 51.330878 714.000000 0.85
-31.562336 55.234087 750.000000 0.85
-45.411187 -35.539190 1126.000000 0.85
-29.561634 -21.849904 733.000000 0.85
-29.561634 -20.564615 733.000000 0.85
-29.561634 -19.279327 733.000000 0.85
-29.480975 -17.944941 731.000000 0.85
-29.440645 -16.640365 730.000000 0.85
-29.359986 -15.318254 728.000000 0.85
-29.319656 -14.022444 727.000000 0.85
-29.319656 -12.747677 727.000000 0.85
-29.319656 -11.472909 727.000000 0.85
-28.150096 -9.791338 698.000000 0.85
-28.150096 -8.567421 698.000000 0.85
-28.150096 -7.343503 698.000000 0.85
-28.271085 -6.145888 701.000000 0.85
-28.271085 -4.916711 701.000000 0.85
-28.271085 -3.687533 701.000000 0.85
-28.230756 -2.454848 700.000000 0.85
-28.230756 -1.227424 700.000000 0.85
-28.150096 0.000000 698.000000 0.85
-28.150096 1.223917 698.000000 0.85
-28.109767 2.444328 697.000000 0.85
-28.109767 3.666491 697.000000 0.85
-28.109767 4.888655 697.000000 0.85
-28.109767 6.110819 697.000000 0.85
-28.109767 7.332983 697.000000 0.85
-28.109767 8.555146 697.000000 0.85
-28.109767 9.777310 697.000000 0.85
-28.109767 10.999474 697.000000 0.85
-28.109767 12.221638 697.000000 0.85
-28.109767 13.443802 697.000000 0.85
-28.109767 14.665965 697.000000 0.85
-28.109767 15.888129 697.000000 0.85
-28.109767 17.110293 697.000000 0.85
-28.109767 18.332457 697.000000 0.85
-28.109767 19.554620 697.000000 0.85
-28.109767 20.776784 697.000000 0.85
-28.109767 21.998948 697.000000 0.85
-28.150096 23.254427 698.000000 0.85
-28.150096 24.478345 698.000000 0.85
-28.150096 25.702262 698.000000 0.85
-28.150096 26.926179 698.000000 0.85
-28.150096 28.150096 698.000000 0.85
-28.150096 29.374014 698.000000 0.85
-28.150096 30.597931 698.000000 0.85
-28.150096 31.821848 698.000000 0.85
-28.230756 33.140452 700.000000 0.85
-28.230756 34.367877 700.000000 0.85
-28.271085 35.646151 701.000000 0.85
-28.351745 36.980537 703.000000 0.85
-28.351745 38.213221 703.000000 0.85
-28.392074 39.502016 704.000000 0.85
-28.472734 40.852183 706.000000 0.85
-28.513063 42.149746 707.000000 0.85
-28.553393 43.450815 708.000000 0.85
-28.553393 44.692267 708.000000 0.85
-28.553393 45.933719 708.000000 0.85
-28.634052 47.308434 710.000000 0.85
-28.634052 48.553393 710.000000 0.85
-28.674382 49.868490 711.000000 0.85
-28.795371 51.330878 714.000000 0.85
-28.916360 52.803787 717.000000 0.85
-28.916360 54.061021 717.000000 0.85
-30.408557 58.172891 754.000000 0.85
-43.436788 -35.539190 1126.000000 0.85
-28.276346 -21.849904 733.000000 0.85
-28.276346 -20.564615 733.000000 0.85
-28.276346 -19.279327 733.000000 0.85
-28.199193 -17.944941 731.000000 0.85
-28.160617 -16.640365 730.000000 0.85
-28.044889 -15.297212 727.000000 0.85
-28.044889 -14.022444 727.000000 0.85
-27.967736 -12.712607 725.000000 0.85
-27.967736 -11.441347 725.000000 0.85
-28.044889 -10.198141 727.000000 0.85
-26.926179 -8.567421 698.000000 0.85
-26.926179 -7.343503 698.000000 0.85
-27.003332 -6.137121 700.000000 0.85
-27.041908 -4.916711 701.000000 0.85
-27.003332 -3.682272 700.000000 0.85
-27.003332 -2.454848 700.000000 0.85
-26.926179 -1.223917 698.000000 0.85
-26.926179 0.000000 698.000000 0.85
-26.887603 1.222164 697.000000 0.85
-26.887603 2.444328 697.000000 0.85
-26.887603 3.666491 697.000000 0.85
-26.887603 4.888655 697.000000 0.85
-26.887603 6.110819 697.000000 0.85
-26.887603 7.332983 697.000000 0.85
-26.887603 8.555146 697.000000 0.85
-26.887603 9.777310 697.000000 0.85
-26.887603 10.999474 697.000000 0.85
-26.887603 12.221638 697.000000 0.85
-26.887603 13.443802 697.000000 0.85
-26.887603 14.665965 697.000000 0.85
-26.887603 15.888129 697.000000 0.85
-26.887603 17.110293 697.000000 0.85
-26.887603 18.332457 697.000000 0.85
-26.887603 19.554620 697.000000 0.85
-26.887603 20.776784 697.000000 0.85
-26.887603 21.998948 697.000000 0.85
-26.887603 23.221112 697.000000 0.85
-26.887603 24.443275 697.000000 0.85
-26.926179 25.702262 698.000000 0.85
-26.926179 26.926179 698.000000 0.85
-26.926179 28.150096 698.000000 0.85
-26.926179 29.374014 698.000000 0.85
-26.926179 30.597931 698.000000 0.85
-26.926179 31.821848 698.000000 0.85
-27.003332 33.140452 700.000000 0.85
-27.003332 34.367877 700.000000 0.85
-27.041908 35.646151 701.000000 0.85
-27.119060 36.980537 703.000000 0.85
-27.119060 38.213221 703.000000 0.85
-27.157636 39.502016 704.000000 0.85
-27.234789 40.852183 706.000000 0.85
-27.273365 42.149746 707.000000 0.85
-27.273365 43.389444 707.000000 0.85
-27.311941 44.692267 708.000000 0.85
-27.311941 45.933719 708.000000 0.85
-27.311941 47.175171 708.000000 0.85
-27.389093 48.553393 710.000000 0.85
-27.427670 49.868490 711.000000 0.85
-27.543398 51.330878 714.000000 0.85
-27.620551 52.730142 716.000000 0.85
-27.659127 54.061021 717.000000 0.85
-27.736279 55.472558 719.000000 0.85
-27.659127 56.575487 717.000000 0.85
-41.462388 -35.539190 1126.000000 0.85
-27.027880 -21.879712 734.000000 0.85
-27.027880 -20.592671 734.000000 0.85
-27.027880 -19.305629 734.000000 0.85
-26.991057 -17.994038 733.000000 0.85
-26.880589 -16.640365 730.000000 0.85
-26.770121 -15.297212 727.000000 0.85
-26.770121 -14.022444 727.000000 0.85
-26.696476 -12.712607 725.000000 0.85
-26.696476 -11.441347 725.000000 0.85
-26.770121 -10.198141 727.000000 0.85
-25.702262 -8.567421 698.000000 0.85
-25.702262 -7.343503 698.000000 0.85
-25.702262 -6.119586 698.000000 0.85
-25.775907 -4.909697 700.000000 0.85
-25.775907 -3.682272 700.000000 0.85
-25.702262 -2.447834 698.000000 0.85
-25.702262 -1.223917 698.000000 0.85
-25.665439 0.000000 697.000000 0.85
-25.665439 1.222164 697.000000 0.85
-25.665439 2.444328 697.000000 0.85
-25.665439 3.666491 697.000000 0.85
-25.628617 4.881641 696.000000 0.85
-25.628617 6.102052 696.000000 0.85
-25.628617 7.322462 696.000000 0.85
-25.628617 8.542872 696.000000 0.85
-25.628617 9.763282 696.000000 0.85
-25.628617 10.983693 696.000000 0.85
-25.628617 12.204103 696.000000 0.85
-25.628617 13.424513 696.000000 0.85
-25.628617 14.644924 696.000000 0.85
-25.628617 15.865334 696.000000 0.85
-25.628617 17.085744 696.000000 0.85
-25.628617 18.306155 696.000000 0.85
-25.628617 19.526565 696.000000 0.85
-25.665439 20.776784 697.000000 0.85
-25.665439 21.998948 697.000000 0.85
-25.665439 23.221112 697.000000 0.85
-25.665439 24.443275 697.000000 0.85
-25.665439 25.665439 697.000000 0.85
-25.702262 26.926179 698.000000 0.85
-25.702262 28.150096 698.000000 0.85
-25.702262 29.374014 698.000000 0.85
-25.702262 30.597931 698.000000 0.85
-25.702262 31.821848 698.000000 0.85
-25.702262 33.045765 698.000000 0.85
-25.775907 34.367877 700.000000 0.85
-25.812730 35.646151 701.000000 0.85
-25.812730 36.875329 701.000000 0.85
-25.886376 38.213221 703.000000 0.85
-25.886376 39.445906 703.000000 0.85
-25.923198 40.736454 704.000000 0.85
-25.996844 42.090128 706.000000 0.85
-25.996844 43.328073 706.000000 0.85
-26.033666 44.629143 707.000000 0.85
-26.033666 45.868841 707.000000 0.85
-26.070489 47.175171 708.000000 0.85
-26.144135 48.553393 710.000000 0.85
-26.180957 49.868490 711.000000 0.85
-26.291426 51.330878 714.000000 0.85
-26.365071 52.730142 716.000000 0.85
-26.365071 53.985622 716.000000 0.85
-26.401894 55.318254 717.000000 0.85
-26.401894 56.575487 717.000000 0.85
-26.401894 57.832720 717.000000 0.85
-39.487989 -35.539190 1126.000000 0.85
-25.705769 -21.849904 733.000000 0.85
-25.705769 -20.564615 733.000000 0.85
-25.705769 -19.279327 733.000000 0.85
-25.705769 -17.994038 733.000000 0.85
-25.600561 -16.640365 730.000000 0.85
-25.425215 -15.255129 725.000000 0.85
-25.355076 -13.945292 723.000000 0.85
-25.355076 -12.677538 723.000000 0.85
-25.425215 -11.441347 725.000000 0.85
-24.478345 -9.791338 698.000000 0.85
-24.478345 -8.567421 698.000000 0.85
-24.478345 -7.343503 698.000000 0.85
-24.478345 -6.119586 698.000000 0.85
-24.548483 -4.909697 700.000000 0.85
-24.548483 -3.682272 700.000000 0.85
-24.478345 -2.447834 698.000000 0.85
-24.478345 -1.223917 698.000000 0.85
-24.443275 0.000000 697.000000 0.85
-24.443275 1.222164 697.000000 0.85
-24.443275 2.444328 697.000000 0.85
-24.443275 3.666491 697.000000 0.85
-24.408206 4.881641 696.000000 0.85
-24.408206 6.102052 696.000000 0.85
-24.408206 7.322462 696.000000 0.85
-24.408206 8.542872 696.000000 0.85
-24.408206 9.763282 696.000000 0.85
-24.408206 10.983693 696.000000 0.85
-24.408206 12.204103 696.000000 0.85
-24.408206 13.424513 696.000000 0.85
-24.408206 14.644924 696.000000 0.85
-24.338068 15.819744 694.000000 0.85
-24.338068 17.036647 694.000000 0.85
-24.408206 18.306155 696.000000 0.85
-24.408206 19.526565 696.000000 0.85
-24.408206 20.746975 696.000000 0.85
-24.408206 21.967386 696.000000 0.85
-24.408206 23.187796 696.000000 0.85
-24.443275 24.443275 697.000000 0.85
-24.443275 25.665439 697.000000 0.85
-24.443275 26.887603 697.000000 0.85
-24.443275 28.109767 697.000000 0.85
-24.478345 29.374014 698.000000 0.85
-24.478345 30.597931 698.000000 0.85
-24.478345 31.821848 698.000000 0.85
-24.478345 33.045765 698.000000 0.85
-24.548483 34.367877 700.000000 0.85
-24.548483 35.595301 700.000000 0.85
-24.583553 36.875329 701.000000 0.85
-24.653691 38.213221 703.000000 0.85
-24.653691 39.445906 703.000000 0.85
-24.688760 40.736454 704.000000 0.85
-24.758899 42.090128 706.000000 0.85
-24.758899 43.328073 706.000000 0.85
-24.793968 44.629143 707.000000 0.85
-24.793968 45.868841 707.000000 0.85
-24.829037 47.175171 708.000000 0.85
-24.899176 48.553393 710.000000 0.85
-24.899176 49.798352 710.000000 0.85
-25.004384 51.258986 713.000000 0.85
-25.039453 52.582851 714.000000 0.85
-25.109591 53.985622 716.000000 0.85
-25.144661 55.318254 717.000000 0.85
-25.144661 56.575487 717.000000 0.85
-25.144661 57.832720 717.000000 0.85
-25.249868 59.337191 720.000000 0.85
-37.513589 -35.539190 1126.000000 0.85
-24.420480 -21.849904 733.000000 0.85
-24.420480 -20.564615 733.000000 0.85
-24.420480 -19.279327 733.000000 0.85
-24.353849 -17.944941 731.000000 0.85
-24.253901 -16.594775 728.000000 0.85
-24.153954 -15.255129 725.000000 0.85
-24.087322 -13.945292 723.000000 0.85
-23.987375 -12.624934 720.000000 0.85
-23.987375 -11.362441 720.000000 0.85
-23.254427 -9.791338 698.000000 0.85
-23.254427 -8.567421 698.000000 0.85
-23.254427 -7.343503 698.000000 0.85
-23.254427 -6.119586 698.000000 0.85
-23.321059 -4.909697 700.000000 0.85
-23.254427 -3.671752 698.000000 0.85
-23.254427 -2.447834 698.000000 0.85
-23.221112 -1.222164 697.000000 0.85
-23.221112 0.000000 697.000000 0.85
-23.221112 1.222164 697.000000 0.85
-23.221112 2.444328 697.000000 0.85
-23.221112 3.666491 697.000000 0.85
-23.187796 4.881641 696.000000 0.85
-23.187796 6.102052 696.000000 0.85
-23.187796 7.322462 696.000000 0.85
-23.187796 8.542872 696.000000 0.85
-23.187796 9.763282 696.000000 0.85
-23.187796 10.983693 696.000000 0.85
-23.187796 12.204103 696.000000 0.85
-23.187796 13.424513 696.000000 0.85
-23.187796 14.644924 696.000000 0.85
-23.121164 15.819744 694.000000 0.85
-23.121164 17.036647 694.000000 0.85
-23.187796 18.306155 696.000000 0.85
-23.187796 19.526565 696.000000 0.85
-23.187796 20.746975 696.000000 0.85
-23.187796 21.967386 696.000000 0.85
-23.187796 23.187796 696.000000 0.85
-23.187796 24.408206 696.000000 0.85
-23.221112 25.665439 697.000000 0.85
-23.221112 26.887603 697.000000 0.85
-23.221112 28.109767 697.000000 0.85
-23.221112 29.331931 697.000000 0.85
-23.254427 30.597931 698.000000 0.85
-23.254427 31.821848 698.000000 0.85
-23.254427 33.045765 698.000000 0.85
-23.321059 34.367877 700.000000 0.85
-23.321059 35.595301 700.000000 0.85
-23.354375 36.875329 701.000000 0.85
-23.421006 38.213221 703.000000 0.85
-23.421006 39.445906 703.000000 0.85
-23.454322 40.736454 704.000000 0.85
-23.454322 41.970893 704.000000 0.85
-23.520954 43.328073 706.000000 0.85
-23.520954 44.566018 706.000000 0.85
-23.554270 45.868841 707.000000 0.85
-23.587585 47.175171 708.000000 0.85
-23.654217 48.553393 710.000000 0.85
-23.654217 49.798352 710.000000 0.85
-23.754164 51.258986 713.000000 0.85
-23.787480 52.582851 714.000000 0.85
-23.854112 53.985622 716.000000 0.85
-23.887428 55.318254 717.000000 0.85
-23.887428 56.575487 717.000000 0.85
-23.954059 57.994038 719.000000 0.85
-23.987375 59.337191 720.000000 0.85
-35.665439 -35.665439 1130.000000 0.85
-23.135192 -21.849904 733.000000 0.85
-23.135192 -20.564615 733.000000 0.85
-23.135192 -19.279327 733.000000 0.85
-23.072067 -17.944941 731.000000 0.85
-22.977380 -16.594775 728.000000 0.85
-22.819569 -15.213046 723.000000 0.85
-22.788006 -13.926004 722.000000 0.85
-22.724882 -12.624934 720.000000 0.85
-22.724882 -11.362441 720.000000 0.85
-22.819569 -10.142031 723.000000 0.85
-22.030510 -8.567421 698.000000 0.85
-22.030510 -7.343503 698.000000 0.85
-22.030510 -6.119586 698.000000 0.85
-22.093635 -4.909697 700.000000 0.85
-22.030510 -3.671752 698.000000 0.85
-22.030510 -2.447834 698.000000 0.85
-21.998948 -1.222164 697.000000 0.85
-21.998948 0.000000 697.000000 0.85
-21.998948 1.222164 697.000000 0.85
-21.998948 2.444328 697.000000 0.85
-21.998948 3.666491 697.000000 0.85
-21.998948 4.888655 697.000000 0.85
-21.998948 6.110819 697.000000 0.85
-21.967386 7.322462 696.000000 0.85
-21.967386 8.542872 696.000000 0.85
-21.967386 9.763282 696.000000 0.85
-21.967386 10.983693 696.000000 0.85
-21.967386 12.204103 696.000000 0.85
-21.967386 13.424513 696.000000 0.85
-21.967386 14.644924 696.000000 0.85
-21.967386 15.865334 696.000000 0.85
-21.967386 17.085744 696.000000 0.85
-21.967386 18.306155 696.000000 0.85
-21.967386 19.526565 696.000000 0.85
-21.967386 20.746975 696.000000 0.85
-21.967386 21.967386 696.000000 0.85
-21.967386 23.187796 696.000000 0.85
-21.967386 24.408206 696.000000 0.85
-21.998948 25.665439 697.000000 0.85
-21.998948 26.887603 697.000000 0.85
-21.998948 28.109767 697.000000 0.85
-21.998948 29.331931 697.000000 0.85
-22.030510 30.597931 698.000000 0.85
-22.030510 31.821848 698.000000 0.85
-22.030510 33.045765 698.000000 0.85
-22.093635 34.367877 700.000000 0.85
-22.093635 35.595301 700.000000 0.85
-22.125197 36.875329 701.000000 0.85
-22.188322 38.213221 703.000000 0.85
-22.188322 39.445906 703.000000 0.85
-22.219884 40.736454 704.000000 0.85
-22.219884 41.970893 704.000000 0.85
-22.283009 43.328073 706.000000 0.85
-22.283009 44.566018 706.000000 0.85
-22.314571 45.868841 707.000000 0.85
-22.314571 47.108539 707.000000 0.85
-22.346134 48.416623 708.000000 0.85
-22.409258 49.798352 710.000000 0.85
-22.440821 51.115203 711.000000 0.85
-22.535508 52.582851 714.000000 0.85
-22.535508 53.834824 714.000000 0.85
-22.598632 55.241101 716.000000 0.85
-22.630195 56.575487 717.000000 0.85
-22.630195 57.832720 717.000000 0.85
-22.724882 59.337191 720.000000 0.85
-33.803261 -35.791689 1134.000000 0.85
-21.849904 -21.849904 733.000000 0.85
-21.849904 -20.564615 733.000000 0.85
-21.849904 -19.279327 733.000000 0.85
-21.790286 -17.944941 731.000000 0.85
-21.700859 -16.594775 728.000000 0.85
-21.551815 -15.213046 723.000000 0.85
-21.522006 -13.926004 722.000000 0.85
-21.522006 -12.660004 722.000000 0.85
-21.462388 -11.362441 720.000000 0.85
-21.551815 -10.142031 723.000000 0.85
-20.866211 -8.591969 700.000000 0.85
-20.866211 -7.364545 700.000000 0.85
-20.866211 -6.137121 700.000000 0.85
-20.866211 -4.909697 700.000000 0.85
-20.866211 -3.682272 700.000000 0.85
-20.866211 -2.454848 700.000000 0.85
-20.806593 -1.223917 698.000000 0.85
-20.806593 0.000000 698.000000 0.85
-20.776784 1.222164 697.000000 0.85
-20.776784 2.444328 697.000000 0.85
-20.776784 3.666491 697.000000 0.85
-20.776784 4.888655 697.000000 0.85
-20.776784 6.110819 697.000000 0.85
-20.776784 7.332983 697.000000 0.85
-20.776784 8.555146 697.000000 0.85
-20.776784 9.777310 697.000000 0.85
-20.776784 10.999474 697.000000 0.85
-20.776784 12.221638 697.000000 0.85
-20.746975 13.424513 696.000000 0.85
-20.746975 14.644924 696.000000 0.85
-20.746975 15.865334 696.000000 0.85
-20.746975 17.085744 696.000000 0.85
-20.746975 18.306155 696.000000 0.85
-20.746975 19.526565 696.000000 0.85
-20.746975 20.746975 696.000000 0.85
-20.746975 21.967386 696.000000 0.85
-20.746975 23.187796 696.000000 0.85
-20.776784 24.443275 697.000000 0.85
-20.776784 25.665439 697.000000 0.85
-20.806593 26.926179 698.000000 0.85
-20.806593 28.150096 698.000000 0.85
-20.806593 29.374014 698.000000 0.85
-20.806593 30.597931 698.000000 0.85
-20.866211 31.913028 700.000000 0.85
-20.866211 33.140452 700.000000 0.85
-20.866211 34.367877 700.000000 0.85
-20.866211 35.595301 700.000000 0.85
-20.896020 36.875329 701.000000 0.85
-20.955637 38.213221 703.000000 0.85
-20.955637 39.445906 703.000000 0.85
-20.985446 40.736454 704.000000 0.85
-20.985446 41.970893 704.000000 0.85
-21.045064 43.328073 706.000000 0.85
-21.045064 44.566018 706.000000 0.85
-21.074873 45.868841 707.000000 0.85
-21.074873 47.108539 707.000000 0.85
-21.104682 48.416623 708.000000 0.85
-21.164299 49.798352 710.000000 0.85
-21.194108 51.115203 711.000000 0.85
-21.283535 52.582851 714.000000 0.85
-21.283535 53.834824 714.000000 0.85
-21.343153 55.241101 716.000000 0.85
-21.372962 56.575487 717.000000 0.85
-21.372962 57.832720 717.000000 0.85
-21.462388 59.337191 720.000000 0.85
-31.814834 -35.791689 1134.000000 0.85
-20.564615 -21.849904 733.000000 0.85
-20.564615 -20.564615 733.000000 0.85
-20.508504 -19.226723 731.000000 0.85
-20.480449 -17.920393 730.000000 0.85
-20.340172 -16.526390 725.000000 0.85
-20.284061 -15.213046 723.000000 0.85
-20.284061 -13.945292 723.000000 0.85
-20.284061 -12.677538 723.000000 0.85
-20.284061 -11.409784 723.000000 0.85
-20.284061 -10.142031 723.000000 0.85
-19.638787 -8.591969 700.000000 0.85
-19.638787 -7.364545 700.000000 0.85
-19.638787 -6.137121 700.000000 0.85
-19.638787 -4.909697 700.000000 0.85
-19.638787 -3.682272 700.000000 0.85
-19.638787 -2.454848 700.000000 0.85
-19.582676 -1.223917 698.000000 0.85
-19.582676 0.000000 698.000000 0.85
-19.554620 1.222164 697.000000 0.85
-19.554620 2.444328 697.000000 0.85
-19.582676 3.671752 698.000000 0.85
-19.582676 4.895669 698.000000 0.85
-19.554620 6.110819 697.000000 0.85
-19.554620 7.332983 697.000000 0.85
-19.554620 8.555146 697.000000 0.85
-19.554620 9.777310 697.000000 0.85
-19.554620 10.999474 697.000000 0.85
-19.554620 12.221638 697.000000 0.85
-19.526565 13.424513 696.000000 0.85
-19.526565 14.644924 696.000000 0.85
-19.526565 15.865334 696.000000 0.85
-19.526565 17.085744 696.000000 0.85
-19.526565 18.306155 696.000000 0.85
-19.526565 19.526565 696.000000 0.85
-19.526565 20.746975 696.000000 0.85
-19.526565 21.967386 696.000000 0.85
-19.526565 23.187796 696.000000 0.85
-19.554620 24.443275 697.000000 0.85
-19.554620 25.665439 697.000000 0.85
-19.554620 26.887603 697.000000 0.85
-19.582676 28.150096 698.000000 0.85
-19.582676 29.374014 698.000000 0.85
-19.582676 30.597931 698.000000 0.85
-19.638787 31.913028 700.000000 0.85
-19.638787 33.140452 700.000000 0.85
-19.638787 34.367877 700.000000 0.85
-19.666842 35.646151 701.000000 0.85
-19.722953 36.980537 703.000000 0.85
-19.751008 38.267578 704.000000 0.85
-19.751008 39.502016 704.000000 0.85
-19.751008 40.736454 704.000000 0.85
-19.807119 42.090128 706.000000 0.85
-19.807119 43.328073 706.000000 0.85
-19.835174 44.629143 707.000000 0.85
-19.835174 45.868841 707.000000 0.85
-19.863230 47.175171 708.000000 0.85
-19.919341 48.553393 710.000000 0.85
-19.947396 49.868490 711.000000 0.85
-20.003507 51.258986 713.000000 0.85
-20.031562 52.582851 714.000000 0.85
-20.087673 53.985622 716.000000 0.85
-20.115729 55.318254 717.000000 0.85
-20.115729 56.575487 717.000000 0.85
-20.171839 57.994038 719.000000 0.85
-20.199895 59.337191 720.000000 0.85
-29.826407 -35.791689 1134.000000 0.85
-19.279327 -21.849904 733.000000 0.85
-19.279327 -20.564615 733.000000 0.85
-19.200421 -19.200421 730.000000 0.85
-19.200421 -17.920393 730.000000 0.85
-19.068911 -16.526390 725.000000 0.85
-19.016307 -15.213046 723.000000 0.85
-19.016307 -13.945292 723.000000 0.85
-19.016307 -12.677538 723.000000 0.85
-19.016307 -11.409784 723.000000 0.85
-19.016307 -10.142031 723.000000 0.85
-19.121515 -8.923374 727.000000 0.85
-18.437664 -7.375066 701.000000 0.85
-18.437664 -6.145888 701.000000 0.85
-18.411362 -4.909697 700.000000 0.85
-18.411362 -3.682272 700.000000 0.85
-18.411362 -2.454848 700.000000 0.85
-18.358759 -1.223917 698.000000 0.85
-18.358759 0.000000 698.000000 0.85
-18.332457 1.222164 697.000000 0.85
-18.332457 2.444328 697.000000 0.85
-18.358759 3.671752 698.000000 0.85
-18.358759 4.895669 698.000000 0.85
-18.332457 6.110819 697.000000 0.85
-18.332457 7.332983 697.000000 0.85
-18.332457 8.555146 697.000000 0.85
-18.332457 9.777310 697.000000 0.85
-18.332457 10.999474 697.000000 0.85
-18.332457 12.221638 697.000000 0.85
-18.306155 13.424513 696.000000 0.85
-18.306155 14.644924 696.000000 0.85
-18.306155 15.865334 696.000000 0.85
-18.306155 17.085744 696.000000 0.85
-18.306155 18.306155 696.000000 0.85
-18.306155 19.526565 696.000000 0.85
-18.306155 20.746975 696.000000 0.85
-18.306155 21.967386 696.000000 0.85
-18.306155 23.187796 696.000000 0.85
-18.332457 24.443275 697.000000 0.85
-18.332457 25.665439 697.000000 0.85
-18.332457 26.887603 697.000000 0.85
-18.358759 28.150096 698.000000 0.85
-18.358759 29.374014 698.000000 0.85
-18.358759 30.597931 698.000000 0.85
-18.358759 31.821848 698.000000 0.85
-18.411362 33.140452 700.000000 0.85
-18.411362 34.367877 700.000000 0.85
-18.437664 35.646151 701.000000 0.85
-18.490268 36.980537 703.000000 0.85
-18.490268 38.213221 703.000000 0.85
-18.516570 39.502016 704.000000 0.85
-18.516570 40.736454 704.000000 0.85
-18.516570 41.970893 704.000000 0.85
-18.569174 43.328073 706.000000 0.85
-18.569174 44.566018 706.000000 0.85
-18.621778 45.933719 708.000000 0.85
-18.621778 47.175171 708.000000 0.85
-18.674382 48.553393 710.000000 0.85
-18.700684 49.868490 711.000000 0.85
-18.753288 51.258986 713.000000 0.85
-18.779590 52.582851 714.000000 0.85
-18.832194 53.985622 716.000000 0.85
-18.858496 55.318254 717.000000 0.85
-18.858496 56.575487 717.000000 0.85
-18.911099 57.994038 719.000000 0.85
-18.911099 59.254778 719.000000 0.85
-27.837980 -35.791689 1134.000000 0.85
-17.994038 -21.849904 733.000000 0.85
-17.994038 -20.564615 733.000000 0.85
-17.920393 -19.200421 730.000000 0.85
-17.871296 -17.871296 728.000000 0.85
-17.846747 -16.571980 727.000000 0.85
-17.797650 -15.255129 725.000000 0.85
-17.748553 -13.945292 723.000000 0.85
-17.748553 -12.677538 723.000000 0.85
-17.797650 -11.441347 725.000000 0.85
-17.846747 -10.198141 727.000000 0.85
-17.846747 -8.923374 727.000000 0.85
-17.208487 -7.375066 701.000000 0.85
-17.208487 -6.145888 701.000000 0.85
-17.183938 -4.909697 700.000000 0.85
-17.183938 -3.682272 700.000000 0.85
-17.183938 -2.454848 700.000000 0.85
-17.134841 -1.223917 698.000000 0.85
-17.134841 0.000000 698.000000 0.85
-17.110293 1.222164 697.000000 0.85
-17.110293 2.444328 697.000000 0.85
-17.134841 3.671752 698.000000 0.85
-17.110293 4.888655 697.000000 0.85
-17.110293 6.110819 697.000000 0.85
-17.036647 7.301420 694.000000 0.85
-17.036647 8.518324 694.000000 0.85
-17.036647 9.735227 694.000000 0.85
-17.110293 10.999474 697.000000 0.85
-17.110293 12.221638 697.000000 0.85
-17.085744 13.424513 696.000000 0.85
-17.085744 14.644924 696.000000 0.85
-17.085744 15.865334 696.000000 0.85
-17.085744 17.085744 696.000000 0.85
-17.085744 18.306155 696.000000 0.85
-17.085744 19.526565 696.000000 0.85
-17.085744 20.746975 696.000000 0.85
-17.085744 21.967386 696.000000 0.85
-17.085744 23.187796 696.000000 0.85
-17.110293 24.443275 697.000000 0.85
-17.110293 25.665439 697.000000 0.85
-17.110293 26.887603 697.000000 0.85
-17.134841 28.150096 698.000000 0.85
-17.134841 29.374014 698.000000 0.85
-17.134841 30.597931 698.000000 0.85
-17.134841 31.821848 698.000000 0.85
-17.183938 33.140452 700.000000 0.85
-17.183938 34.367877 700.000000 0.85
-17.183938 35.595301 700.000000 0.85
-17.208487 36.875329 701.000000 0.85
-17.257584 38.213221 703.000000 0.85
-17.257584 39.445906 703.000000 0.85
-17.282132 40.736454 704.000000 0.85
-17.282132 41.970893 704.000000 0.85
-17.331229 43.328073 706.000000 0.85
-17.331229 44.566018 706.000000 0.85
-17.380326 45.933719 708.000000 0.85
-17.429423 47.308434 710.000000 0.85
-17.429423 48.553393 710.000000 0.85
-17.453972 49.868490 711.000000 0.85
-17.503069 51.258986 713.000000 0.85
-17.527617 52.582851 714.000000 0.85
-17.527617 53.834824 714.000000 0.85
-17.576714 55.241101 716.000000 0.85
-17.601262 56.575487 717.000000 0.85
-17.601262 57.832720 717.000000 0.85
-17.650359 59.254778 719.000000 0.85
-25.849553 -35.791689 1134.000000 0.85
-25.849553 -33.803261 1134.000000 0.85
-16.640365 -20.480449 730.000000 0.85
-16.594775 -19.147817 728.000000 0.85
-16.571980 -17.846747 727.000000 0.85
-16.571980 -16.571980 727.000000 0.85
-16.526390 -15.255129 725.000000 0.85
-16.480800 -13.945292 723.000000 0.85
-16.480800 -12.677538 723.000000 0.85
-16.526390 -11.441347 725.000000 0.85
-16.526390 -10.170086 725.000000 0.85
-16.526390 -8.898825 725.000000 0.85
-15.979309 -7.375066 701.000000 0.85
-15.979309 -6.145888 701.000000 0.85
-15.979309 -4.916711 701.000000 0.85
-15.956514 -3.682272 700.000000 0.85
-15.956514 -2.454848 700.000000 0.85
-15.910924 -1.223917 698.000000 0.85
-15.910924 0.000000 698.000000 0.85
-15.888129 1.222164 697.000000 0.85
-15.888129 2.444328 697.000000 0.85
-15.910924 3.671752 698.000000 0.85
-15.888129 4.888655 697.000000 0.85
-15.888129 6.110819 697.000000 0.85
-15.819744 7.301420 694.000000 0.85
-15.819744 8.518324 694.000000 0.85
-15.819744 9.735227 694.000000 0.85
-15.888129 10.999474 697.000000 0.85
-15.865334 14.644924 696.000000 0.85
-15.865334 15.865334 696.000000 0.85
-15.865334 17.085744 696.000000 0.85
-15.865334 18.306155 696.000000 0.85
-15.865334 19.526565 696.000000 0.85
-15.865334 20.746975 696.000000 0.85
-15.865334 21.967386 696.000000 0.85
-15.865334 23.187796 696.000000 0.85
-15.888129 24.443275 697.000000 0.85
-15.888129 25.665439 697.000000 0.85
-15.888129 26.887603 697.000000 0.85
-15.888129 28.109767 697.000000 0.85
-15.910924 29.374014 698.000000 0.85
-15.910924 30.597931 698.000000 0.85
-15.910924 31.821848 698.000000 0.85
-15.910924 33.045765 698.000000 0.85
-15.956514 34.367877 700.000000 0.85
-15.956514 35.595301 700.000000 0.85
-15.979309 36.875329 701.000000 0.85
-16.024899 38.213221 703.000000 0.85
-16.024899 39.445906 703.000000 0.85
-16.047694 40.736454 704.000000 0.85
-16.047694 41.970893 704.000000 0.85
-16.093284 43.328073 706.000000 0.85
-16.093284 44.566018 706.000000 0.85
-16.116079 45.868841 707.000000 0.85
-16.138874 47.175171 708.000000 0.85
-16.184464 48.553393 710.000000 0.85
-16.207259 49.868490 711.000000 0.85
-16.252849 51.258986 713.000000 0.85
-16.275644 52.582851 714.000000 0.85
-16.275644 53.834824 714.000000 0.85
-16.321234 55.241101 716.000000 0.85
-16.344029 56.575487 717.000000 0.85
-16.344029 57.832720 717.000000 0.85
-16.389619 59.254778 719.000000 0.85
-23.861126 -35.791689 1134.000000 0.85
-23.861126 -33.803261 1134.000000 0.85
-15.360337 -20.480449 730.000000 0.85
-15.318254 -19.147817 728.000000 0.85
-15.297212 -17.846747 727.000000 0.85
-15.297212 -16.571980 727.000000 0.85
-15.255129 -15.255129 725.000000 0.85
-15.213046 -13.945292 723.000000 0.85
-15.213046 -12.677538 723.000000 0.85
-15.255129 -11.441347 725.000000 0.85
-15.255129 -10.170086 725.000000 0.85
-14.792215 -8.628792 703.000000 0.85
-14.750132 -7.375066 701.000000 0.85
-14.750132 -6.145888 701.000000 0.85
-14.729090 -4.909697 700.000000 0.85
-14.729090 -3.682272 700.000000 0.85
-14.687007 -2.447834 698.000000 0.85
-14.687007 -1.223917 698.000000 0.85
-14.687007 0.000000 698.000000 0.85
-14.687007 1.223917 698.000000 0.85
-14.687007 2.447834 698.000000 0.85
-14.665965 3.666491 697.000000 0.85
-14.665965 4.888655 697.000000 0.85
-14.644924 6.102052 696.000000 0.85
-14.602841 7.301420 694.000000 0.85
-14.602841 8.518324 694.000000 0.85
-14.602841 9.735227 694.000000 0.85
-14.644924 10.983693 696.000000 0.85
-14.644924 14.644924 696.000000 0.85
-14.644924 15.865334 696.000000 0.85
-14.644924 17.085744 696.000000 0.85
-14.644924 18.306155 696.000000 0.85
-14.644924 19.526565 696.000000 0.85
-14.644924 20.746975 696.000000 0.85
-14.665965 21.998948 697.000000 0.85
-14.665965 23.221112 697.000000 0.85
-14.665965 24.443275 697.000000 0.85
-14.665965 25.665439 697.000000 0.85
-14.665965 26.887603 697.000000 0.85
-14.665965 28.109767 697.000000 0.85
-14.665965 29.331931 697.000000 0.85
-14.687007 30.597931 698.000000 0.85
-14.687007 31.821848 698.000000 0.85
-14.687007 33.045765 698.000000 0.85
-14.687007 34.269683 698.000000 0.85
-14.729090 35.595301 700.000000 0.85
-14.750132 36.875329 701.000000 0.85
-14.792215 38.213221 703.000000 0.85
-14.792215 39.445906 703.000000 0.85
-14.813256 40.736454 704.000000 0.85
-14.813256 41.970893 704.000000 0.85
-14.855339 43.328073 706.000000 0.85
-14.855339 44.566018 706.000000 0.85
-14.876381 45.868841 707.000000 0.85
-14.897422 47.175171 708.000000 0.85
-14.939506 48.553393 710.000000 0.85
-14.960547 49.868490 711.000000 0.85
-15.002630 51.258986 713.000000 0.85
-15.023672 52.582851 714.000000 0.85
-15.065755 53.985622 716.000000 0.85
-15.065755 55.241101 716.000000 0.85
-15.086796 56.575487 717.000000 0.85
-15.086796 57.832720 717.000000 0.85
-15.128880 59.254778 719.000000 0.85
-21.872699 -35.791689 1134.000000 0.85
-21.872699 -33.803261 1134.000000 0.85
-14.041732 -20.424338 728.000000 0.85
-14.041732 -19.147817 728.000000 0.85
-14.022444 -17.846747 727.000000 0.85
-13.983868 -16.526390 725.000000 0.85
-13.945292 -15.213046 723.000000 0.85
-13.945292 -13.945292 723.000000 0.85
-13.945292 -12.677538 723.000000 0.85
-13.983868 -11.441347 725.000000 0.85
-13.983868 -10.170086 725.000000 0.85
-13.559530 -8.628792 703.000000 0.85
-13.520954 -7.375066 701.000000 0.85
-13.520954 -6.145888 701.000000 0.85
-13.501666 -4.909697 700.000000 0.85
-13.501666 -3.682272 700.000000 0.85
-13.463090 -2.447834 698.000000 0.85
-13.463090 -1.223917 698.000000 0.85
-13.463090 0.000000 698.000000 0.85
-13.443802 1.222164 697.000000 0.85
-13.443802 2.444328 697.000000 0.85
-13.443802 3.666491 697.000000 0.85
-13.424513 4.881641 696.000000 0.85
-13.424513 6.102052 696.000000 0.85
-13.385937 7.301420 694.000000 0.85
-13.385937 8.518324 694.000000 0.85
-13.385937 9.735227 694.000000 0.85
-13.424513 10.983693 696.000000 0.85
-13.385937 12.169034 694.000000 0.85
-13.385937 13.385937 694.000000 0.85
-13.424513 14.644924 696.000000 0.85
-13.424513 15.865334 696.000000 0.85
-13.424513 17.085744 696.000000 0.85
-13.424513 18.306155 696.000000 0.85
-13.424513 19.526565 696.000000 0.85
-13.424513 20.746975 696.000000 0.85
-13.424513 21.967386 696.000000 0.85
-13.424513 23.187796 696.000000 0.85
-13.443802 24.443275 697.000000 0.85
-13.443802 25.665439 697.000000 0.85
-13.443802 26.887603 697.000000 0.85
-13.443802 28.109767 697.000000 0.85
-13.443802 29.331931 697.000000 0.85
-13.463090 30.597931 698.000000 0.85
-13.463090 31.821848 698.000000 0.85
-13.463090 33.045765 698.000000 0.85
-13.463090 34.269683 698.000000 0.85
-13.501666 35.595301 700.000000 0.85
-13.501666 36.822725 700.000000 0.85
-13.520954 38.104506 701.000000 0.85
-13.520954 39.333684 701.000000 0.85
-13.559530 40.678590 703.000000 0.85
-13.578818 41.970893 704.000000 0.85
-13.578818 43.205331 704.000000 0.85
-13.617394 44.566018 706.000000 0.85
-13.636682 45.868841 707.000000 0.85
-13.655971 47.175171 708.000000 0.85
-13.694547 48.553393 710.000000 0.85
-13.713835 49.868490 711.000000 0.85
-13.713835 51.115203 711.000000 0.85
-13.752411 52.509206 713.000000 0.85
-13.771699 53.834824 714.000000 0.85
-13.810275 55.241101 716.000000 0.85
-13.829563 56.575487 717.000000 0.85
-13.829563 57.832720 717.000000 0.85
-13.868140 59.254778 719.000000 0.85
-19.884271 -35.791689 1134.000000 0.85
-12.800281 -21.760477 730.000000 0.85
-12.765211 -20.424338 728.000000 0.85
-12.747677 -19.121515 727.000000 0.85
-12.747677 -17.846747 727.000000 0.85
-12.712607 -16.526390 725.000000 0.85
-12.677538 -15.213046 723.000000 0.85
-12.677538 -13.945292 723.000000 0.85
-12.677538 -12.677538 723.000000 0.85
-12.677538 -11.409784 723.000000 0.85
-12.677538 -10.142031 723.000000 0.85
-12.344380 -8.641066 704.000000 0.85
-12.326846 -7.396107 703.000000 0.85
-12.291776 -6.145888 701.000000 0.85
-12.274242 -4.909697 700.000000 0.85
-12.274242 -3.682272 700.000000 0.85
-12.239172 -2.447834 698.000000 0.85
-12.239172 -1.223917 698.000000 0.85
-12.239172 0.000000 698.000000 0.85
-12.221638 1.222164 697.000000 0.85
-12.221638 2.444328 697.000000 0.85
-12.221638 3.666491 697.000000 0.85
-12.204103 4.881641 696.000000 0.85
-12.204103 6.102052 696.000000 0.85
-12.169034 7.301420 694.000000 0.85
-12.169034 8.518324 694.000000 0.85
-12.169034 9.735227 694.000000 0.85
-12.204103 10.983693 696.000000 0.85
-12.169034 12.169034 694.000000 0.85
-12.169034 13.385937 694.000000 0.85
-12.204103 14.644924 696.000000 0.85
-12.204103 15.865334 696.000000 0.85
-12.204103 17.085744 696.000000 0.85
-12.204103 18.306155 696.000000 0.85
-12.204103 19.526565 696.000000 0.85
-12.204103 20.746975 696.000000 0.85
-12.204103 21.967386 696.000000 0.85
-12.204103 23.187796 696.000000 0.85
-12.221638 24.443275 697.000000 0.85
-12.221638 25.665439 697.000000 0.85
-12.221638 26.887603 697.000000 0.85
-12.221638 28.109767 697.000000 0.85
-12.221638 29.331931 697.000000 0.85
-12.239172 30.597931 698.000000 0.85
-12.239172 31.821848 698.000000 0.85
-12.239172 33.045765 698.000000 0.85
-12.239172 34.269683 698.000000 0.85
-12.274242 35.595301 700.000000 0.85
-12.274242 36.822725 700.000000 0.85
-12.291776 38.104506 701.000000 0.85
-12.291776 39.333684 701.000000 0.85
-12.326846 40.678590 703.000000 0.85
-12.344380 41.970893 704.000000 0.85
-12.344380 43.205331 704.000000 0.85
-12.379449 44.566018 706.000000 0.85
-12.396984 45.868841 707.000000 0.85
-12.414519 47.175171 708.000000 0.85
-12.449588 48.553393 710.000000 0.85
-12.467123 49.868490 711.000000 0.85
-12.467123 51.115203 711.000000 0.85
-12.502192 52.509206 713.000000 0.85
-12.519726 53.834824 714.000000 0.85
-12.554796 55.241101 716.000000 0.85
-12.572330 56.575487 717.000000 0.85
-12.572330 57.832720 717.000000 0.85
-17.895844 -35.791689 1134.000000 0.85
-11.520252 -21.760477 730.000000 0.85
-11.488690 -20.424338 728.000000 0.85
-11.472909 -19.121515 727.000000 0.85
-11.441347 -17.797650 725.000000 0.85
-11.409784 -16.480800 723.000000 0.85
-11.409784 -15.213046 723.000000 0.85
-11.394003 -13.926004 722.000000 0.85
-11.362441 -12.624934 720.000000 0.85
-11.299316 -11.299316 716.000000 0.85
-11.157286 -9.917587 707.000000 0.85
-11.109942 -8.641066 704.000000 0.85
-11.109942 -7.406628 704.000000 0.85
-11.062599 -6.145888 701.000000 0.85
-11.062599 -4.916711 701.000000 0.85
-11.046817 -3.682272 700.000000 0.85
-11.015255 -2.447834 698.000000 0.85
-11.015255 -1.223917 698.000000 0.85
-11.015255 0.000000 698.000000 0.85
-10.999474 1.222164 697.000000 0.85
-10.999474 2.444328 697.000000 0.85
-10.999474 3.666491 697.000000 0.85
-10.983693 4.881641 696.000000 0.85
-10.983693 6.102052 696.000000 0.85
-10.952130 7.301420 694.000000 0.85
-10.952130 8.518324 694.000000 0.85
-10.952130 9.735227 694.000000 0.85
-10.952130 10.952130 694.000000 0.85
-10.952130 12.169034 694.000000 0.85
-10.952130 13.385937 694.000000 0.85
-10.952130 14.602841 694.000000 0.85
-10.983693 15.865334 696.000000 0.85
-10.983693 17.085744 696.000000 0.85
-10.983693 18.306155 696.000000 0.85
-10.983693 19.526565 696.000000 0.85
-10.983693 20.746975 696.000000 0.85
-10.983693 21.967386 696.000000 0.85
-10.999474 23.221112 697.000000 0.85
-10.999474 24.443275 697.000000 0.85
-10.999474 25.665439 697.000000 0.85
-10.999474 26.887603 697.000000 0.85
-10.999474 28.109767 697.000000 0.85
-11.015255 29.374014 698.000000 0.85
-11.015255 30.597931 698.000000 0.85
-11.015255 31.821848 698.000000 0.85
-11.015255 33.045765 698.000000 0.85
-11.015255 34.269683 698.000000 0.85
-11.046817 35.595301 700.000000 0.85
-11.046817 36.822725 700.000000 0.85
-11.062599 38.104506 701.000000 0.85
-11.109942 39.502016 704.000000 0.85
-11.109942 40.736454 704.000000 0.85
-11.109942 41.970893 704.000000 0.85
-11.141504 43.328073 706.000000 0.85
-11.141504 44.566018 706.000000 0.85
-11.157286 45.868841 707.000000 0.85
-11.173067 47.175171 708.000000 0.85
-11.204629 48.553393 710.000000 0.85
-11.220410 49.868490 711.000000 0.85
-11.220410 51.115203 711.000000 0.85
-11.251973 52.509206 713.000000 0.85
-11.267754 53.834824 714.000000 0.85
-11.299316 55.241101 716.000000 0.85
-11.299316 56.496581 716.000000 0.85
-11.315097 57.832720 717.000000 0.85
-15.907417 -35.791689 1134.000000 0.85
-10.212169 -21.700859 728.000000 0.85
-10.198141 -20.396283 727.000000 0.85
-10.170086 -19.068911 725.000000 0.85
-10.142031 -17.748553 723.000000 0.85
-10.142031 -16.480800 723.000000 0.85
-10.128003 -15.192004 722.000000 0.85
-10.099947 -13.887428 720.000000 0.85
-10.057864 -12.572330 717.000000 0.85
-10.043837 -11.299316 716.000000 0.85
-9.903560 -9.903560 706.000000 0.85
-9.903560 -8.665615 706.000000 0.85
-9.875504 -7.406628 704.000000 0.85
-9.861476 -6.163423 703.000000 0.85
-9.833421 -4.916711 701.000000 0.85
-9.819393 -3.682272 700.000000 0.85
-9.819393 -2.454848 700.000000 0.85
-9.791338 -1.223917 698.000000 0.85
-9.791338 0.000000 698.000000 0.85
-9.777310 1.222164 697.000000 0.85
-9.777310 2.444328 697.000000 0.85
-9.777310 3.666491 697.000000 0.85
-9.763282 4.881641 696.000000 0.85
-9.763282 6.102052 696.000000 0.85
-9.735227 7.301420 694.000000 0.85
-9.735227 8.518324 694.000000 0.85
-9.735227 9.735227 694.000000 0.85
-9.735227 10.952130 694.000000 0.85
-9.763282 12.204103 696.000000 0.85
-9.735227 13.385937 694.000000 0.85
-9.735227 14.602841 694.000000 0.85
-9.763282 15.865334 696.000000 0.85
-9.763282 17.085744 696.000000 0.85
-9.763282 18.306155 696.000000 0.85
-9.763282 19.526565 696.000000 0.85
-9.763282 20.746975 696.000000 0.85
-9.763282 21.967386 696.000000 0.85
-9.777310 23.221112 697.000000 0.85
-9.777310 24.443275 697.000000 0.85
-9.777310 25.665439 697.000000 0.85
-9.777310 26.887603 697.000000 0.85
-9.777310 28.109767 697.000000 0.85
-9.791338 29.374014 698.000000 0.85
-9.791338 30.597931 698.000000 0.85
-9.791338 31.821848 698.000000 0.85
-9.791338 33.045765 698.000000 0.85
-9.819393 34.367877 700.000000 0.85
-9.819393 35.595301 700.000000 0.85
-9.819393 36.822725 700.000000 0.85
-9.833421 38.104506 701.000000 0.85
-9.861476 39.445906 703.000000 0.85
-9.875504 40.736454 704.000000 0.85
-9.875504 41.970893 704.000000 0.85
-9.903560 43.328073 706.000000 0.85
-9.917587 44.629143 707.000000 0.85
-9.931615 45.933719 708.000000 0.85
-9.959670 47.308434 710.000000 0.85
-9.973698 48.621778 711.000000 0.85
-9.973698 49.868490 711.000000 0.85
-10.001753 51.258986 713.000000 0.85
-10.001753 52.509206 713.000000 0.85
-10.015781 53.834824 714.000000 0.85
-10.043837 55.241101 716.000000 0.85
-10.043837 56.496581 716.000000 0.85
-10.057864 57.832720 717.000000 0.85
-13.918990 -35.791689 1134.000000 0.85
-8.935648 -21.700859 728.000000 0.85
-8.923374 -20.396283 727.000000 0.85
-8.874277 -19.016307 723.000000 0.85
-8.862002 -17.724005 722.000000 0.85
-8.862002 -16.458005 722.000000 0.85
-8.837454 -15.149921 720.000000 0.85
-8.825180 -13.868140 719.000000 0.85
-8.788357 -12.554796 716.000000 0.85
-8.763809 -11.267754 714.000000 0.85
-8.665615 -9.903560 706.000000 0.85
-8.665615 -8.665615 706.000000 0.85
-8.641066 -7.406628 704.000000 0.85
-8.628792 -6.163423 703.000000 0.85
-8.604243 -4.916711 701.000000 0.85
-8.591969 -3.682272 700.000000 0.85
-8.591969 -2.454848 700.000000 0.85
-8.567421 -1.223917 698.000000 0.85
-8.567421 0.000000 698.000000 0.85
-8.567421 1.223917 698.000000 0.85
-8.555146 2.444328 697.000000 0.85
-8.555146 3.666491 697.000000 0.85
-8.555146 4.888655 697.000000 0.85
-8.555146 6.110819 697.000000 0.85
-8.542872 7.322462 696.000000 0.85
-8.542872 8.542872 696.000000 0.85
-8.542872 9.763282 696.000000 0.85
-8.542872 10.983693 696.000000 0.85
-8.542872 12.204103 696.000000 0.85
-8.542872 13.424513 696.000000 0.85
-8.542872 14.644924 696.000000 0.85
-8.542872 15.865334 696.000000 0.85
-8.542872 17.085744 696.000000 0.85
-8.542872 18.306155 696.000000 0.85
-8.555146 19.554620 697.000000 0.85
-8.555146 20.776784 697.000000 0.85
-8.555146 21.998948 697.000000 0.85
-8.555146 23.221112 697.000000 0.85
-8.555146 24.443275 697.000000 0.85
-8.567421 25.702262 698.000000 0.85
-8.567421 26.926179 698.000000 0.85
-8.567421 28.150096 698.000000 0.85
-8.567421 29.374014 698.000000 0.85
-8.567421 30.597931 698.000000 0.85
-8.567421 31.821848 698.000000 0.85
-8.567421 33.045765 698.000000 0.85
-8.591969 34.367877 700.000000 0.85
-8.591969 35.595301 700.000000 0.85
-8.604243 36.875329 701.000000 0.85
-8.604243 38.104506 701.000000 0.85
-8.628792 39.445906 703.000000 0.85
-8.641066 40.736454 704.000000 0.85
-8.641066 41.970893 704.000000 0.85
-8.665615 43.328073 706.000000 0.85
-8.677889 44.629143 707.000000 0.85
-8.690163 45.933719 708.000000 0.85
-8.714712 47.308434 710.000000 0.85
-8.726986 48.621778 711.000000 0.85
-8.726986 49.868490 711.000000 0.85
-8.751534 51.258986 713.000000 0.85
-8.763809 52.582851 714.000000 0.85
-8.788357 53.985622 716.000000 0.85
-8.788357 55.241101 716.000000 0.85
-8.800631 56.575487 717.000000 0.85
-8.960196 58.881291 730.000000 0.85
-11.930563 -35.791689 1134.000000 0.85
-7.648606 -21.671050 727.000000 0.85
-7.648606 -20.396283 727.000000 0.85
-7.606523 -19.016307 723.000000 0.85
-7.596002 -17.724005 722.000000 0.85
-7.574961 -16.412415 720.000000 0.85
-7.564440 -15.128880 719.000000 0.85
-7.543398 -13.829563 717.000000 0.85
-7.532877 -12.554796 716.000000 0.85
-7.501315 -11.251973 713.000000 0.85
-7.469753 -9.959670 710.000000 0.85
-7.438190 -8.677889 707.000000 0.85
-7.427670 -7.427670 706.000000 0.85
-7.406628 -6.172190 704.000000 0.85
-7.375066 -4.916711 701.000000 0.85
-7.364545 -3.682272 700.000000 0.85
-7.364545 -2.454848 700.000000 0.85
-7.343503 -1.223917 698.000000 0.85
-7.343503 0.000000 698.000000 0.85
-7.343503 1.223917 698.000000 0.85
-7.332983 2.444328 697.000000 0.85
-7.332983 3.666491 697.000000 0.85
-7.332983 4.888655 697.000000 0.85
-7.332983 6.110819 697.000000 0.85
-7.322462 7.322462 696.000000 0.85
-7.322462 8.542872 696.000000 0.85
-7.322462 9.763282 696.000000 0.85
-7.322462 10.983693 696.000000 0.85
-7.322462 12.204103 696.000000 0.85
-7.322462 13.424513 696.000000 0.85
-7.322462 14.644924 696.000000 0.85
-7.322462 15.865334 696.000000 0.85
-7.322462 17.085744 696.000000 0.85
-7.322462 18.306155 696.000000 0.85
-7.332983 19.554620 697.000000 0.85
-7.332983 20.776784 697.000000 0.85
-7.332983 21.998948 697.000000 0.85
-7.332983 23.221112 697.000000 0.85
-7.332983 24.443275 697.000000 0.85
-7.343503 25.702262 698.000000 0.85
-7.343503 26.926179 698.000000 0.85
-7.343503 28.150096 698.000000 0.85
-7.343503 29.374014 698.000000 0.85
-7.343503 30.597931 698.000000 0.85
-7.364545 31.913028 700.000000 0.85
-7.364545 33.140452 700.000000 0.85
-7.364545 34.367877 700.000000 0.85
-7.364545 35.595301 700.000000 0.85
-7.375066 36.875329 701.000000 0.85
-7.396107 38.213221 703.000000 0.85
-7.396107 39.445906 703.000000 0.85
-7.406628 40.736454 704.000000 0.85
-7.406628 41.970893 704.000000 0.85
-7.427670 43.328073 706.000000 0.85
-7.438190 44.629143 707.000000 0.85
-7.448711 45.933719 708.000000 0.85
-7.469753 47.308434 710.000000 0.85
-7.480274 48.621778 711.000000 0.85
-7.480274 49.868490 711.000000 0.85
-7.501315 51.258986 713.000000 0.85
-7.511836 52.582851 714.000000 0.85
-7.532877 53.985622 716.000000 0.85
-7.543398 55.318254 717.000000 0.85
-7.564440 56.733298 719.000000 0.85
-7.596002 58.236016 722.000000 0.85
-9.942136 -35.791689 1134.000000 0.85
-6.373838 -21.671050 727.000000 0.85
-6.338769 -20.284061 723.000000 0.85
-6.338769 -19.016307 723.000000 0.85
-6.330002 -17.724005 722.000000 0.85
-6.312467 -16.412415 720.000000 0.85
-6.303700 -15.128880 719.000000 0.85
-6.286165 -13.829563 717.000000 0.85
-6.259863 -12.519726 714.000000 0.85
