ply
format ascii 1.0
comment
element vertex 1261
property float32 x
property float32 y
property float32 z
property float intensity
element face 0
property list uchar int vertex_indices
end_header
-84.201298 40.897773 686.000000 0.85
-83.955813 41.977906 684.000000 0.85
-83.955813 43.177275 684.000000 0.85
-83.833070 44.311766 683.000000 0.85
-83.833070 45.509381 683.000000 0.85
-83.833070 46.706996 683.000000 0.85
-83.710328 47.834473 682.000000 0.85
-83.710328 49.030335 682.000000 0.85
-83.710328 50.226197 682.000000 0.85
-83.710328 51.422059 682.000000 0.85
-83.710328 52.617920 682.000000 0.85
-83.710328 53.813782 682.000000 0.85
-83.710328 55.009644 682.000000 0.85
-83.710328 56.205506 682.000000 0.85
-83.710328 57.401368 682.000000 0.85
-83.710328 58.597230 682.000000 0.85
-86.628090 15.065755 716.000000 0.85
-86.386113 16.275644 714.000000 0.85
-86.386113 17.527617 714.000000 0.85
-86.386113 18.779590 714.000000 0.85
-86.023146 19.947396 711.000000 0.85
-85.902157 21.164299 710.000000 0.85
-85.902157 22.409258 710.000000 0.85
-85.660179 23.587585 708.000000 0.85
-85.176223 24.688760 704.000000 0.85
-85.176223 25.923198 704.000000 0.85
-85.176223 27.157636 704.000000 0.85
-85.055234 28.351745 703.000000 0.85
-84.692267 29.458180 700.000000 0.85
-84.450289 30.597931 698.000000 0.85
-84.450289 31.821848 698.000000 0.85
-83.966334 32.856391 694.000000 0.85
-83.966334 34.073295 694.000000 0.85
-83.845345 35.239348 693.000000 0.85
-83.603367 36.349290 691.000000 0.85
-83.119411 37.343503 687.000000 0.85
-82.998422 38.492022 686.000000 0.85
-82.756444 39.579169 684.000000 0.85
-82.756444 40.778538 684.000000 0.85
-82.756444 41.977906 684.000000 0.85
-82.756444 43.177275 684.000000 0.85
-82.756444 44.376644 684.000000 0.85
-82.635455 45.509381 683.000000 0.85
-82.635455 46.706996 683.000000 0.85
-82.514466 47.834473 682.000000 0.85
-82.514466 49.030335 682.000000 0.85
-82.514466 50.226197 682.000000 0.85
-82.514466 51.422059 682.000000 0.85
-82.514466 52.617920 682.000000 0.85
-82.514466 53.813782 682.000000 0.85
-82.272488 54.848325 680.000000 0.85
-82.272488 56.040680 680.000000 0.85
-82.514466 57.401368 682.000000 0.85
-82.514466 58.597230 682.000000 0.85
-85.372611 15.065755 716.000000 0.85
-85.372611 16.321234 716.000000 0.85
-85.372611 17.576714 716.000000 0.85
-85.372611 18.832194 716.000000 0.85
-85.014904 20.003507 713.000000 0.85
-84.776433 21.194108 711.000000 0.85
-84.657198 22.409258 710.000000 0.85
-84.418727 23.587585 708.000000 0.85
-83.941785 24.688760 704.000000 0.85
-83.941785 25.923198 704.000000 0.85
-83.941785 27.157636 704.000000 0.85
-83.822550 28.351745 703.000000 0.85
-83.464843 29.458180 700.000000 0.85
-83.226372 30.597931 698.000000 0.85
-83.107137 31.776258 697.000000 0.85
-82.749430 32.856391 694.000000 0.85
-82.749430 34.073295 694.000000 0.85
-82.630195 35.239348 693.000000 0.85
-82.391724 36.349290 691.000000 0.85
-81.914782 37.343503 687.000000 0.85
-81.795546 38.492022 686.000000 0.85
-81.557075 39.579169 684.000000 0.85
-81.557075 40.778538 684.000000 0.85
-81.557075 41.977906 684.000000 0.85
-81.557075 43.177275 684.000000 0.85
-81.557075 44.376644 684.000000 0.85
-81.437840 45.509381 683.000000 0.85
-81.437840 46.706996 683.000000 0.85
-81.318604 47.834473 682.000000 0.85
-81.318604 49.030335 682.000000 0.85
-81.318604 50.226197 682.000000 0.85
-81.318604 51.422059 682.000000 0.85
-81.080133 52.463616 680.000000 0.85
-81.080133 53.655971 680.000000 0.85
-81.080133 54.848325 680.000000 0.85
-81.080133 56.040680 680.000000 0.85
-81.080133 57.233035 680.000000 0.85
-81.080133 58.425390 680.000000 0.85
-84.117131 15.065755 716.000000 0.85
-84.117131 16.321234 716.000000 0.85
-84.117131 17.576714 716.000000 0.85
-84.117131 18.832194 716.000000 0.85
-83.882167 20.031562 714.000000 0.85
-83.529721 21.194108 711.000000 0.85
-83.412239 22.409258 710.000000 0.85
-83.177275 23.587585 708.000000 0.85
-82.942311 24.758899 706.000000 0.85
-82.707347 25.923198 704.000000 0.85
-82.707347 27.157636 704.000000 0.85
-82.354901 28.271085 701.000000 0.85
-82.002455 29.374014 698.000000 0.85
-82.002455 30.597931 698.000000 0.85
-81.884973 31.776258 697.000000 0.85
-81.767491 32.951078 696.000000 0.85
-81.532527 34.073295 694.000000 0.85
-81.415045 35.239348 693.000000 0.85
-81.415045 36.454498 693.000000 0.85
-81.062599 37.506575 690.000000 0.85
-80.827635 38.604243 688.000000 0.85
-80.710153 39.752762 687.000000 0.85
-80.710153 40.957391 687.000000 0.85
-80.357706 41.977906 684.000000 0.85
-80.357706 43.177275 684.000000 0.85
-80.240224 44.311766 683.000000 0.85
-80.240224 45.509381 683.000000 0.85
-80.240224 46.706996 683.000000 0.85
-80.122742 47.834473 682.000000 0.85
-80.122742 49.030335 682.000000 0.85
-80.122742 50.226197 682.000000 0.85
-80.122742 51.422059 682.000000 0.85
-79.887778 52.463616 680.000000 0.85
-79.887778 53.655971 680.000000 0.85
-79.887778 54.848325 680.000000 0.85
-79.887778 56.040680 680.000000 0.85
-79.887778 57.233035 680.000000 0.85
-79.887778 58.425390 680.000000 0.85
-79.887778 59.617745 680.000000 0.85
-82.861652 15.065755 716.000000 0.85
-82.861652 16.321234 716.000000 0.85
-82.861652 17.576714 716.000000 0.85
-82.861652 18.832194 716.000000 0.85
-82.630195 20.031562 714.000000 0.85
-82.167280 21.164299 710.000000 0.85
-82.167280 22.409258 710.000000 0.85
-81.935823 23.587585 708.000000 0.85
-81.704366 24.758899 706.000000 0.85
-81.704366 25.996844 706.000000 0.85
-81.472909 27.157636 704.000000 0.85
-81.125723 28.271085 701.000000 0.85
-80.778538 29.374014 698.000000 0.85
-80.778538 30.597931 698.000000 0.85
-80.547080 31.730668 696.000000 0.85
-80.547080 32.951078 696.000000 0.85
-80.315623 34.073295 694.000000 0.85
-80.199895 35.239348 693.000000 0.85
-79.968438 36.349290 691.000000 0.85
-79.852709 37.506575 690.000000 0.85
-79.621252 38.604243 688.000000 0.85
-79.505523 39.752762 687.000000 0.85
-79.505523 40.957391 687.000000 0.85
-79.158338 41.977906 684.000000 0.85
-79.158338 43.177275 684.000000 0.85
-79.042609 44.311766 683.000000 0.85
-79.042609 45.509381 683.000000 0.85
-79.042609 46.706996 683.000000 0.85
-78.926881 47.834473 682.000000 0.85
-78.926881 49.030335 682.000000 0.85
-78.926881 50.226197 682.000000 0.85
-78.926881 51.422059 682.000000 0.85
-78.695423 52.463616 680.000000 0.85
-78.695423 53.655971 680.000000 0.85
-78.579695 54.767666 679.000000 0.85
-78.579695 55.958268 679.000000 0.85
-78.579695 57.148869 679.000000 0.85
-78.579695 58.339470 679.000000 0.85
-78.579695 59.530072 679.000000 0.85
-78.579695 60.720673 679.000000 0.85
-83.201824 12.800281 730.000000 0.85
-83.201824 14.080309 730.000000 0.85
-82.290023 15.192004 722.000000 0.85
-82.062073 16.412415 720.000000 0.85
-81.948097 17.650359 719.000000 0.85
-81.720147 18.858496 717.000000 0.85
-81.378222 20.031562 714.000000 0.85
-80.922322 21.164299 710.000000 0.85
-80.694371 22.346134 708.000000 0.85
-80.694371 23.587585 708.000000 0.85
-80.580396 24.793968 707.000000 0.85
-80.466421 25.996844 706.000000 0.85
-80.238471 27.157636 704.000000 0.85
-79.896546 28.271085 701.000000 0.85
-79.782571 29.458180 700.000000 0.85
-79.440645 30.554094 697.000000 0.85
-79.326670 31.730668 696.000000 0.85
-79.098720 32.856391 694.000000 0.85
-79.098720 34.073295 694.000000 0.85
-78.984745 35.239348 693.000000 0.85
-78.756795 36.349290 691.000000 0.85
-78.642820 37.506575 690.000000 0.85
-78.414869 38.604243 688.000000 0.85
-78.300894 39.752762 687.000000 0.85
-78.300894 40.957391 687.000000 0.85
-77.958969 41.977906 684.000000 0.85
-77.958969 43.177275 684.000000 0.85
-77.844994 44.311766 683.000000 0.85
-77.844994 45.509381 683.000000 0.85
-77.844994 46.706996 683.000000 0.85
-77.731019 47.834473 682.000000 0.85
-77.731019 49.030335 682.000000 0.85
-77.731019 50.226197 682.000000 0.85
-77.503069 51.271261 680.000000 0.85
-77.389093 52.386463 679.000000 0.85
-77.389093 53.577065 679.000000 0.85
-77.389093 54.767666 679.000000 0.85
-77.275118 55.875855 678.000000 0.85
-77.275118 57.064703 678.000000 0.85
-77.275118 58.253551 678.000000 0.85
-77.275118 59.442399 678.000000 0.85
-77.275118 60.631247 678.000000 0.85
-82.595125 7.743293 736.000000 0.85
-82.595125 9.033842 736.000000 0.85
-82.370682 10.296335 734.000000 0.85
-82.258460 11.567596 733.000000 0.85
-81.921796 12.800281 730.000000 0.85
-81.697352 14.041732 728.000000 0.85
-81.024022 15.192004 722.000000 0.85
-80.799579 16.412415 720.000000 0.85
-80.687358 17.650359 719.000000 0.85
-80.462914 18.858496 717.000000 0.85
-80.126249 20.031562 714.000000 0.85
-79.677363 21.164299 710.000000 0.85
-79.452920 22.346134 708.000000 0.85
-79.340698 23.554270 707.000000 0.85
-79.228476 24.758899 706.000000 0.85
-79.228476 25.996844 706.000000 0.85
-79.004033 27.157636 704.000000 0.85
-78.891811 28.351745 703.000000 0.85
-78.555146 29.458180 700.000000 0.85
-78.218482 30.554094 697.000000 0.85
-78.106260 31.730668 696.000000 0.85
-77.881817 32.856391 694.000000 0.85
-77.881817 34.073295 694.000000 0.85
-77.769595 35.239348 693.000000 0.85
-77.545152 36.349290 691.000000 0.85
-77.545152 37.560933 691.000000 0.85
-77.432930 38.716465 690.000000 0.85
-77.096265 39.752762 687.000000 0.85
-77.096265 40.957391 687.000000 0.85
-76.759600 41.977906 684.000000 0.85
-76.759600 43.177275 684.000000 0.85
-76.647379 44.311766 683.000000 0.85
-76.647379 45.509381 683.000000 0.85
-76.647379 46.706996 683.000000 0.85
-76.535157 47.834473 682.000000 0.85
-76.535157 49.030335 682.000000 0.85
-76.535157 50.226197 682.000000 0.85
-76.310714 51.271261 680.000000 0.85
-76.198492 52.386463 679.000000 0.85
-76.198492 53.577065 679.000000 0.85
-76.086270 54.687007 678.000000 0.85
-76.086270 55.875855 678.000000 0.85
-75.861827 56.896370 676.000000 0.85
-75.861827 58.081711 676.000000 0.85
-75.861827 59.267052 676.000000 0.85
-75.861827 60.452393 676.000000 0.85
-75.861827 61.637735 676.000000 0.85
-81.304577 6.452744 736.000000 0.85
-81.304577 7.743293 736.000000 0.85
-81.083640 9.009293 734.000000 0.85
-80.973172 10.282308 733.000000 0.85
-80.641767 11.520252 730.000000 0.85
-80.310363 12.747677 727.000000 0.85
-80.089427 13.983868 725.000000 0.85
-79.868490 15.213046 723.000000 0.85
-79.758022 16.458005 722.000000 0.85
-79.426618 17.650359 719.000000 0.85
-79.205681 18.858496 717.000000 0.85
-78.874277 20.031562 714.000000 0.85
-78.432404 21.164299 710.000000 0.85
-78.211468 22.346134 708.000000 0.85
-78.100999 23.554270 707.000000 0.85
-77.990531 24.758899 706.000000 0.85
-77.990531 25.996844 706.000000 0.85
-77.990531 27.234789 706.000000 0.85
-77.659127 28.351745 703.000000 0.85
-77.438190 29.500263 701.000000 0.85
-77.106786 30.597931 698.000000 0.85
-76.885850 31.730668 696.000000 0.85
-76.664913 32.856391 694.000000 0.85
-76.664913 34.073295 694.000000 0.85
-76.554445 35.239348 693.000000 0.85
-76.333509 36.349290 691.000000 0.85
-76.333509 37.560933 691.000000 0.85
-76.223041 38.716465 690.000000 0.85
-76.002104 39.810626 688.000000 0.85
-75.891636 40.957391 687.000000 0.85
-75.781168 42.100649 686.000000 0.85
-75.560231 43.177275 684.000000 0.85
-75.560231 44.376644 684.000000 0.85
-75.449763 45.509381 683.000000 0.85
-75.449763 46.706996 683.000000 0.85
-75.339295 47.834473 682.000000 0.85
-75.339295 49.030335 682.000000 0.85
-75.339295 50.226197 682.000000 0.85
-75.118359 51.271261 680.000000 0.85
-75.007891 52.386463 679.000000 0.85
-74.897422 53.498159 678.000000 0.85
-74.676486 54.525688 676.000000 0.85
-74.676486 55.711029 676.000000 0.85
-74.566018 56.812204 675.000000 0.85
-74.566018 57.995792 675.000000 0.85
-74.566018 59.179379 675.000000 0.85
-74.455550 60.273540 674.000000 0.85
-74.455550 61.455374 674.000000 0.85
-74.234613 62.451341 672.000000 0.85
-80.014028 6.452744 736.000000 0.85
-80.014028 7.743293 736.000000 0.85
-79.796598 9.009293 734.000000 0.85
-79.470454 10.254252 731.000000 0.85
-79.361739 11.520252 730.000000 0.85
-79.035595 12.747677 727.000000 0.85
-78.818166 13.983868 725.000000 0.85
-78.600736 15.213046 723.000000 0.85
-78.492022 16.458005 722.000000 0.85
-78.165878 17.650359 719.000000 0.85
-77.948448 18.858496 717.000000 0.85
-77.622304 20.031562 714.000000 0.85
-77.296160 21.194108 711.000000 0.85
-77.187445 22.409258 710.000000 0.85
-76.861301 23.554270 707.000000 0.85
-76.861301 24.793968 707.000000 0.85
-76.752586 25.996844 706.000000 0.85
-76.752586 27.234789 706.000000 0.85
-76.535157 28.392074 704.000000 0.85
-76.426442 29.584429 703.000000 0.85
-76.100298 30.685604 700.000000 0.85
-75.665439 31.730668 696.000000 0.85
-75.448010 32.856391 694.000000 0.85
-75.448010 34.073295 694.000000 0.85
-75.339295 35.239348 693.000000 0.85
-75.339295 36.454498 693.000000 0.85
-75.121866 37.560933 691.000000 0.85
-75.013151 38.716465 690.000000 0.85
-74.795722 39.810626 688.000000 0.85
-74.687007 40.957391 687.000000 0.85
-74.578292 42.100649 686.000000 0.85
-74.360863 43.177275 684.000000 0.85
-74.360863 44.376644 684.000000 0.85
-74.252148 45.509381 683.000000 0.85
-74.252148 46.706996 683.000000 0.85
-74.143433 47.834473 682.000000 0.85
-74.143433 49.030335 682.000000 0.85
-74.143433 50.226197 682.000000 0.85
-73.926004 51.271261 680.000000 0.85
-73.817289 52.386463 679.000000 0.85
-73.708574 53.498159 678.000000 0.85
-73.491145 54.525688 676.000000 0.85
-73.491145 55.711029 676.000000 0.85
-73.382430 56.812204 675.000000 0.85
-73.056286 57.738033 672.000000 0.85
-73.056286 58.916360 672.000000 0.85
-73.056286 60.094687 672.000000 0.85
-73.056286 61.273014 672.000000 0.85
-73.056286 62.451341 672.000000 0.85
-78.937401 6.470279 738.000000 0.85
-78.723479 7.743293 736.000000 0.85
-78.509556 9.009293 734.000000 0.85
-78.188673 10.254252 731.000000 0.85
-78.081711 11.520252 730.000000 0.85
-77.760828 12.747677 727.000000 0.85
-77.546905 13.983868 725.000000 0.85
-77.332983 15.213046 723.000000 0.85
-77.226021 16.458005 722.000000 0.85
-77.012099 17.674908 720.000000 0.85
-76.691215 18.858496 717.000000 0.85
-76.370331 20.031562 714.000000 0.85
-76.049448 21.194108 711.000000 0.85
-75.942486 22.409258 710.000000 0.85
-75.621603 23.554270 707.000000 0.85
-75.621603 24.793968 707.000000 0.85
-75.514641 25.996844 706.000000 0.85
-75.300719 27.157636 704.000000 0.85
-75.193758 28.351745 703.000000 0.85
-75.193758 29.584429 703.000000 0.85
-74.872874 30.685604 700.000000 0.85
-74.445029 31.730668 696.000000 0.85
-74.231106 32.856391 694.000000 0.85
-74.231106 34.073295 694.000000 0.85
-74.124145 35.239348 693.000000 0.85
-74.124145 36.454498 693.000000 0.85
-73.910223 37.560933 691.000000 0.85
-73.803261 38.716465 690.000000 0.85
-73.803261 39.926355 690.000000 0.85
-73.589339 41.017009 688.000000 0.85
-73.482378 42.162020 687.000000 0.85
-73.375416 43.303524 686.000000 0.85
-73.161494 44.376644 684.000000 0.85
-73.161494 45.576013 684.000000 0.85
-73.054533 46.706996 683.000000 0.85
-73.054533 47.904612 683.000000 0.85
-72.947571 49.030335 682.000000 0.85
-72.947571 50.226197 682.000000 0.85
-72.733649 51.271261 680.000000 0.85
-72.519726 52.309311 678.000000 0.85
-72.519726 53.498159 678.000000 0.85
-72.305804 54.525688 676.000000 0.85
-72.198843 55.628617 675.000000 0.85
-72.091881 56.728038 674.000000 0.85
-71.877959 57.738033 672.000000 0.85
-71.877959 58.916360 672.000000 0.85
-71.877959 60.094687 672.000000 0.85
-71.770998 61.181834 671.000000 0.85
-71.770998 62.358408 671.000000 0.85
-71.770998 63.534982 671.000000 0.85
-77.643346 5.176223 738.000000 0.85
-77.643346 6.470279 738.000000 0.85
-77.432930 7.743293 736.000000 0.85
-77.222514 9.009293 734.000000 0.85
-76.906891 10.254252 731.000000 0.85
-76.801683 11.520252 730.000000 0.85
-76.486060 12.747677 727.000000 0.85
-76.275644 13.983868 725.000000 0.85
-76.065229 15.213046 723.000000 0.85
-75.960021 16.458005 722.000000 0.85
-75.749605 17.674908 720.000000 0.85
-75.433982 18.858496 717.000000 0.85
-75.118359 20.031562 714.000000 0.85
-74.802735 21.194108 711.000000 0.85
-74.697528 22.409258 710.000000 0.85
-74.381904 23.554270 707.000000 0.85
-74.381904 24.793968 707.000000 0.85
-74.276696 25.996844 706.000000 0.85
-74.066281 27.157636 704.000000 0.85
-73.961073 28.351745 703.000000 0.85
-73.961073 29.584429 703.000000 0.85
-73.750658 30.729441 701.000000 0.85
-73.435034 31.821848 698.000000 0.85
-73.224619 32.951078 696.000000 0.85
-73.014203 34.073295 694.000000 0.85
-72.908995 35.239348 693.000000 0.85
-72.908995 36.454498 693.000000 0.85
-72.698580 37.560933 691.000000 0.85
-72.593372 38.716465 690.000000 0.85
-72.593372 39.926355 690.000000 0.85
-72.382956 41.017009 688.000000 0.85
-72.277749 42.162020 687.000000 0.85
-72.277749 43.366649 687.000000 0.85
-71.962125 44.376644 684.000000 0.85
-71.962125 45.576013 684.000000 0.85
-71.856917 46.706996 683.000000 0.85
-71.856917 47.904612 683.000000 0.85
-71.751710 49.030335 682.000000 0.85
-71.751710 50.226197 682.000000 0.85
-71.541294 51.271261 680.000000 0.85
-71.330878 52.309311 678.000000 0.85
-71.120463 53.340347 676.000000 0.85
-71.120463 54.525688 676.000000 0.85
-71.015255 55.628617 675.000000 0.85
-70.910047 56.728038 674.000000 0.85
-70.699632 57.738033 672.000000 0.85
-70.699632 58.916360 672.000000 0.85
-70.594424 60.005260 671.000000 0.85
-70.594424 61.181834 671.000000 0.85
-70.489216 62.265474 670.000000 0.85
-70.489216 63.440295 670.000000 0.85
-70.278801 64.422234 668.000000 0.85
-76.349290 5.176223 738.000000 0.85
-76.349290 6.470279 738.000000 0.85
-76.142381 7.743293 736.000000 0.85
-75.935473 9.009293 734.000000 0.85
-75.832018 10.282308 733.000000 0.85
-75.625110 11.536034 731.000000 0.85
-75.314747 12.765211 728.000000 0.85
-75.004384 13.983868 725.000000 0.85
-74.797475 15.213046 723.000000 0.85
-74.694021 16.458005 722.000000 0.85
-74.487112 17.674908 720.000000 0.85
-74.176749 18.858496 717.000000 0.85
-74.073295 20.087673 716.000000 0.85
-73.866386 21.283535 714.000000 0.85
-73.452569 22.409258 710.000000 0.85
-73.245660 23.587585 708.000000 0.85
-73.142206 24.793968 707.000000 0.85
-73.038752 25.996844 706.000000 0.85
-73.038752 27.234789 706.000000 0.85
-72.728389 28.351745 703.000000 0.85
-72.728389 29.584429 703.000000 0.85
-72.521480 30.729441 701.000000 0.85
-72.418026 31.913028 700.000000 0.85
-72.004208 32.951078 696.000000 0.85
-71.797300 34.073295 694.000000 0.85
-71.797300 35.290198 694.000000 0.85
-71.693845 36.454498 693.000000 0.85
-71.486937 37.560933 691.000000 0.85
-71.486937 38.772576 691.000000 0.85
-71.383482 39.926355 690.000000 0.85
-71.176574 41.017009 688.000000 0.85
-71.073119 42.162020 687.000000 0.85
-71.073119 43.366649 687.000000 0.85
-70.969665 44.506400 686.000000 0.85
-70.762756 45.576013 684.000000 0.85
-70.762756 46.775381 684.000000 0.85
-70.659302 47.904612 683.000000 0.85
-70.555848 49.030335 682.000000 0.85
-70.555848 50.226197 682.000000 0.85
-70.348939 51.271261 680.000000 0.85
-70.245485 52.386463 679.000000 0.85
-69.935122 53.340347 676.000000 0.85
-69.935122 54.525688 676.000000 0.85
-69.831668 55.628617 675.000000 0.85
-69.728213 56.728038 674.000000 0.85
-69.521305 57.738033 672.000000 0.85
-69.417850 58.828687 671.000000 0.85
-69.417850 60.005260 671.000000 0.85
-69.314396 61.090654 670.000000 0.85
-69.107487 62.079607 668.000000 0.85
-69.107487 63.250921 668.000000 0.85
-69.107487 64.422234 668.000000 0.85
-75.055234 5.176223 738.000000 0.85
-75.055234 6.470279 738.000000 0.85
-74.851832 7.743293 736.000000 0.85
-74.648431 9.009293 734.000000 0.85
-74.546730 10.282308 733.000000 0.85
-74.343328 11.536034 731.000000 0.85
-74.241627 12.800281 730.000000 0.85
-73.936525 14.022444 727.000000 0.85
-73.733123 15.255129 725.000000 0.85
-73.529721 16.480800 723.000000 0.85
-73.428020 17.724005 722.000000 0.85
-72.919516 18.858496 717.000000 0.85
-72.817815 20.087673 716.000000 0.85
-72.614413 21.283535 714.000000 0.85
-72.512713 22.503945 713.000000 0.85
-72.207610 23.654217 710.000000 0.85
-71.902507 24.793968 707.000000 0.85
-71.902507 26.033666 707.000000 0.85
-71.800807 27.234789 706.000000 0.85
-71.597405 28.392074 704.000000 0.85
-71.495704 29.584429 703.000000 0.85
-71.495704 30.817114 703.000000 0.85
-71.292302 31.958618 701.000000 0.85
-70.885499 32.998422 697.000000 0.85
-70.783798 34.171489 696.000000 0.85
-70.580396 35.290198 694.000000 0.85
-70.478695 36.454498 693.000000 0.85
-70.275294 37.560933 691.000000 0.85
-70.275294 38.772576 691.000000 0.85
-70.173593 39.926355 690.000000 0.85
-70.173593 41.136244 690.000000 0.85
-69.970191 42.223391 688.000000 0.85
-69.970191 43.429774 688.000000 0.85
-69.868490 44.571278 687.000000 0.85
-69.563388 45.576013 684.000000 0.85
-69.563388 46.775381 684.000000 0.85
-69.461687 47.904612 683.000000 0.85
-69.461687 49.102227 683.000000 0.85
-69.156584 50.078906 680.000000 0.85
-68.953183 51.120463 678.000000 0.85
-68.953183 52.309311 678.000000 0.85
-68.749781 53.340347 676.000000 0.85
-68.749781 54.525688 676.000000 0.85
-68.648080 55.628617 675.000000 0.85
-68.546379 56.728038 674.000000 0.85
-68.241277 57.652113 671.000000 0.85
-68.139576 58.741014 670.000000 0.85
-68.139576 59.915834 670.000000 0.85
-67.936174 60.908294 668.000000 0.85
-67.834473 61.986674 667.000000 0.85
-67.834473 63.156234 667.000000 0.85
-67.834473 64.325793 667.000000 0.85
-73.761178 6.470279 738.000000 0.85
-73.561284 7.743293 736.000000 0.85
-73.361389 9.009293 734.000000 0.85
-73.261441 10.282308 733.000000 0.85
-73.061547 11.536034 731.000000 0.85
-72.961599 12.800281 730.000000 0.85
-72.661757 14.022444 727.000000 0.85
-72.461862 15.255129 725.000000 0.85
-72.261967 16.480800 723.000000 0.85
-71.962125 17.674908 720.000000 0.85
-71.662283 18.858496 717.000000 0.85
-71.562336 20.087673 716.000000 0.85
-71.562336 21.343153 716.000000 0.85
-71.362441 22.535508 714.000000 0.85
-71.062599 23.687533 711.000000 0.85
-70.962651 24.899176 710.000000 0.85
-70.662809 26.033666 707.000000 0.85
-70.662809 27.273365 707.000000 0.85
-70.562862 28.472734 706.000000 0.85
-70.362967 29.626512 704.000000 0.85
-70.263019 30.817114 703.000000 0.85
-70.063125 31.958618 701.000000 0.85
-69.963177 33.140452 700.000000 0.85
-69.563388 34.171489 696.000000 0.85
-69.363493 35.290198 694.000000 0.85
-69.263546 36.454498 693.000000 0.85
-69.263546 37.669648 693.000000 0.85
-69.263546 38.884797 693.000000 0.85
-69.063651 39.984219 691.000000 0.85
-69.063651 41.195862 691.000000 0.85
-68.963703 42.346134 690.000000 0.85
-68.963703 43.556023 690.000000 0.85
-68.763809 44.636156 688.000000 0.85
-68.563914 45.709276 686.000000 0.85
-68.364019 46.775381 684.000000 0.85
-68.364019 47.974750 684.000000 0.85
-68.264072 49.102227 683.000000 0.85
-67.964229 50.078906 680.000000 0.85
-67.764335 51.120463 678.000000 0.85
-67.764335 52.309311 678.000000 0.85
-67.564440 53.340347 676.000000 0.85
-67.464492 54.445029 675.000000 0.85
-67.464492 55.628617 675.000000 0.85
-67.164650 56.559705 672.000000 0.85
-67.064703 57.652113 671.000000 0.85
-66.964755 58.741014 670.000000 0.85
-66.964755 59.915834 670.000000 0.85
-66.764861 60.908294 668.000000 0.85
-66.664913 61.986674 667.000000 0.85
-66.664913 63.156234 667.000000 0.85
-66.664913 64.325793 667.000000 0.85
-66.664913 65.495353 667.000000 0.85
-72.467123 6.470279 738.000000 0.85
-72.467123 7.764335 738.000000 0.85
-72.270735 9.033842 736.000000 0.85
-71.976153 10.282308 733.000000 0.85
-71.779765 11.536034 731.000000 0.85
-71.681571 12.800281 730.000000 0.85
-71.485183 14.041732 728.000000 0.85
-71.190601 15.255129 725.000000 0.85
-70.994214 16.480800 723.000000 0.85
-70.699632 17.674908 720.000000 0.85
-70.405050 18.858496 717.000000 0.85
-70.405050 20.115729 717.000000 0.85
-70.306856 21.343153 716.000000 0.85
-70.306856 22.598632 716.000000 0.85
-70.012274 23.754164 713.000000 0.85
-69.815886 24.934245 711.000000 0.85
-69.521305 26.070489 708.000000 0.85
-69.423111 27.273365 707.000000 0.85
-69.324917 28.472734 706.000000 0.85
-69.128529 29.626512 704.000000 0.85
-69.128529 30.860950 704.000000 0.85
-69.030335 32.049798 703.000000 0.85
-69.030335 33.282483 703.000000 0.85
-68.441171 34.220586 697.000000 0.85
-68.342977 35.391899 696.000000 0.85
-68.342977 36.612309 696.000000 0.85
-68.146590 37.724005 694.000000 0.85
-68.048396 38.884797 693.000000 0.85
-68.048396 40.099947 693.000000 0.85
-67.852008 41.195862 691.000000 0.85
-67.852008 42.407505 691.000000 0.85
-67.753814 43.556023 690.000000 0.85
-67.753814 44.765913 690.000000 0.85
-67.557426 45.842539 688.000000 0.85
-67.557426 47.048922 688.000000 0.85
-67.164650 47.974750 684.000000 0.85
-67.066456 49.102227 683.000000 0.85
-67.066456 50.299842 683.000000 0.85
-66.575487 51.120463 678.000000 0.85
-66.575487 52.309311 678.000000 0.85
-66.280905 54.445029 675.000000 0.85
-66.280905 55.628617 675.000000 0.85
-65.986323 56.559705 672.000000 0.85
-65.789935 57.566193 670.000000 0.85
-65.593547 58.565667 668.000000 0.85
-65.593547 59.736981 668.000000 0.85
-65.495353 60.817114 667.000000 0.85
-65.397159 61.893740 666.000000 0.85
-65.397159 63.061547 666.000000 0.85
-65.397159 64.229353 666.000000 0.85
-65.200772 65.200772 664.000000 0.85
-65.200772 66.365071 664.000000 0.85
-71.462388 5.197265 741.000000 0.85
-71.269507 6.479046 739.000000 0.85
-71.269507 7.774855 739.000000 0.85
-71.173067 9.058390 738.000000 0.85
-70.690864 10.282308 733.000000 0.85
-70.497984 11.536034 731.000000 0.85
-70.401543 12.800281 730.000000 0.85
-70.208662 14.041732 728.000000 0.85
-69.919341 15.255129 725.000000 0.85
-69.726460 16.480800 723.000000 0.85
-69.630019 17.724005 722.000000 0.85
-69.437138 18.937401 720.000000 0.85
-69.340698 20.171839 719.000000 0.85
-69.147817 21.372962 717.000000 0.85
-69.147817 22.630195 717.000000 0.85
-69.051376 23.854112 716.000000 0.85
-68.762055 25.004384 713.000000 0.85
-68.569174 26.180957 711.000000 0.85
-68.472734 27.389093 710.000000 0.85
-68.183412 28.513063 707.000000 0.85
-68.086972 29.710679 706.000000 0.85
-67.894091 30.860950 704.000000 0.85
-67.894091 32.095388 704.000000 0.85
-67.797650 33.282483 703.000000 0.85
-67.508329 34.367877 700.000000 0.85
-67.508329 35.595301 700.000000 0.85
-67.122567 36.612309 696.000000 0.85
-66.929686 37.724005 694.000000 0.85
-66.833246 38.884797 693.000000 0.85
-66.833246 40.099947 693.000000 0.85
-66.640365 41.195862 691.000000 0.85
-66.640365 42.407505 691.000000 0.85
-66.543924 43.556023 690.000000 0.85
-66.543924 44.765913 690.000000 0.85
-66.351043 45.842539 688.000000 0.85
-66.351043 47.048922 688.000000 0.85
-66.833246 48.605997 693.000000 0.85
-65.868841 49.102227 683.000000 0.85
-65.868841 50.299842 683.000000 0.85
-65.386639 51.120463 678.000000 0.85
-65.097317 53.261441 675.000000 0.85
-65.097317 54.445029 675.000000 0.85
-65.097317 55.628617 675.000000 0.85
-64.807996 56.559705 672.000000 0.85
-64.422234 57.394354 668.000000 0.85
-64.422234 58.565667 668.000000 0.85
-64.422234 59.736981 668.000000 0.85
-64.325793 60.817114 667.000000 0.85
-64.229353 61.893740 666.000000 0.85
-64.229353 63.061547 666.000000 0.85
-64.229353 64.229353 666.000000 0.85
-64.036472 65.200772 664.000000 0.85
-64.036472 66.365071 664.000000 0.85
-63.747151 67.224268 661.000000 0.85
-70.163072 5.197265 741.000000 0.85
-69.973698 6.479046 739.000000 0.85
-69.973698 7.774855 739.000000 0.85
-69.879011 9.058390 738.000000 0.85
-69.689637 10.324391 736.000000 0.85
-69.405576 11.567596 733.000000 0.85
-69.121515 12.800281 730.000000 0.85
-68.932141 14.041732 728.000000 0.85
-68.837454 15.297212 727.000000 0.85
-68.458706 16.480800 723.000000 0.85
-68.364019 17.724005 722.000000 0.85
-68.174645 18.937401 720.000000 0.85
-68.174645 20.199895 720.000000 0.85
-68.079958 21.432579 719.000000 0.85
-67.890584 22.630195 717.000000 0.85
-67.795897 23.854112 716.000000 0.85
-67.606523 25.039453 714.000000 0.85
-67.511836 26.254603 713.000000 0.85
-67.322462 27.427670 711.000000 0.85
-67.227775 28.634052 710.000000 0.85
-67.038401 29.794845 708.000000 0.85
-66.943714 30.992460 707.000000 0.85
-66.849027 32.186568 706.000000 0.85
-66.659653 33.329826 704.000000 0.85
-66.564966 34.515167 703.000000 0.85
-66.375592 35.646151 701.000000 0.85
-66.375592 36.875329 701.000000 0.85
-65.712783 37.724005 694.000000 0.85
-65.712783 38.940908 694.000000 0.85
-65.618096 40.099947 693.000000 0.85
-65.618096 41.315097 693.000000 0.85
-65.428722 42.407505 691.000000 0.85
-65.428722 43.619148 691.000000 0.85
-65.428722 44.830791 691.000000 0.85
-65.428722 46.042434 691.000000 0.85
-65.618096 47.390847 693.000000 0.85
-65.618096 48.605997 693.000000 0.85
-64.671226 49.102227 683.000000 0.85
-63.913730 54.445029 675.000000 0.85
-63.913730 55.628617 675.000000 0.85
-63.629669 56.559705 672.000000 0.85
-63.250921 57.394354 668.000000 0.85
-63.156234 58.477994 667.000000 0.85
-63.061547 59.558127 666.000000 0.85
-63.061547 60.725934 666.000000 0.85
-62.872173 61.707873 664.000000 0.85
-62.872173 62.872173 664.000000 0.85
-62.872173 64.036472 664.000000 0.85
-62.777486 65.102578 663.000000 0.85
-62.777486 66.265124 663.000000 0.85
-62.588112 67.224268 661.000000 0.85
-68.863756 5.197265 741.000000 0.85
-68.677889 6.479046 739.000000 0.85
-68.677889 7.774855 739.000000 0.85
-68.399088 9.033842 736.000000 0.85
-68.213221 10.296335 734.000000 0.85
-67.934420 11.536034 731.000000 0.85
-67.841487 12.800281 730.000000 0.85
-67.655620 14.041732 728.000000 0.85
-67.562686 15.297212 727.000000 0.85
-67.376819 16.526390 725.000000 0.85
-67.190952 17.748553 723.000000 0.85
-67.098019 18.990005 722.000000 0.85
-66.912151 20.199895 720.000000 0.85
-66.819218 21.432579 719.000000 0.85
-66.819218 22.693319 719.000000 0.85
-66.633351 23.887428 717.000000 0.85
-66.540417 25.109591 716.000000 0.85
-66.540417 26.365071 716.000000 0.85
-66.540417 27.620551 716.000000 0.85
-66.354550 28.795371 714.000000 0.85
-66.075750 29.921094 711.000000 0.85
-65.704015 30.992460 707.000000 0.85
-65.704015 32.232159 707.000000 0.85
-65.611082 33.424513 706.000000 0.85
-65.611082 34.662458 706.000000 0.85
-66.540417 36.408908 716.000000 0.85
-65.611082 37.138348 706.000000 0.85
-65.611082 38.376293 706.000000 0.85
-65.611082 39.614238 706.000000 0.85
-64.402946 40.099947 693.000000 0.85
-64.402946 41.315097 693.000000 0.85
-64.402946 42.530247 693.000000 0.85
-64.402946 43.745397 693.000000 0.85
-64.402946 44.960547 693.000000 0.85
-64.402946 46.175697 693.000000 0.85
-64.402946 47.390847 693.000000 0.85
-64.402946 48.605997 693.000000 0.85
-67.655620 52.337366 728.000000 0.85
-67.655620 53.613887 728.000000 0.85
-67.098019 54.438015 722.000000 0.85
-66.261617 57.510082 713.000000 0.85
-66.261617 58.760302 713.000000 0.85
-66.261617 60.010521 713.000000 0.85
-62.079607 57.394354 668.000000 0.85
-61.057338 57.601262 657.000000 0.85
-61.057338 58.753288 657.000000 0.85
-61.522006 60.361213 662.000000 0.85
-61.522006 61.522006 662.000000 0.85
-61.522006 62.682799 662.000000 0.85
-61.614940 63.940032 663.000000 0.85
-61.522006 65.004384 662.000000 0.85
-61.522006 66.165176 662.000000 0.85
-61.429072 67.224268 661.000000 0.85
-68.020340 2.616167 746.000000 0.85
-67.837980 3.913730 744.000000 0.85
-67.564440 5.197265 741.000000 0.85
-67.564440 6.496581 741.000000 0.85
-67.382080 7.774855 739.000000 0.85
-67.108539 9.033842 736.000000 0.85
-66.926179 10.296335 734.000000 0.85
-66.652639 11.536034 731.000000 0.85
-66.652639 12.817815 731.000000 0.85
-66.561459 14.080309 730.000000 0.85
-66.379099 15.318254 728.000000 0.85
-66.287919 16.571980 727.000000 0.85
-65.923198 17.748553 723.000000 0.85
-65.832018 18.990005 722.000000 0.85
-65.649658 20.199895 720.000000 0.85
-65.649658 21.462388 720.000000 0.85
-65.558478 22.693319 719.000000 0.85
-65.376118 23.887428 717.000000 0.85
-65.284938 25.109591 716.000000 0.85
-65.284938 26.365071 716.000000 0.85
-65.284938 27.620551 716.000000 0.85
-65.284938 28.876030 716.000000 0.85
-65.102578 30.047344 714.000000 0.85
-65.102578 31.299316 714.000000 0.85
-65.102578 32.551289 714.000000 0.85
-65.102578 33.803261 714.000000 0.85
-65.102578 35.055234 714.000000 0.85
-65.284938 36.408908 716.000000 0.85
-64.373137 37.138348 706.000000 0.85
-64.373137 38.376293 706.000000 0.85
-64.373137 39.614238 706.000000 0.85
-63.187796 40.099947 693.000000 0.85
-63.187796 41.315097 693.000000 0.85
-63.187796 42.530247 693.000000 0.85
-63.187796 43.745397 693.000000 0.85
-63.187796 44.960547 693.000000 0.85
-65.011398 60.010521 713.000000 0.85
-64.829037 61.088901 711.000000 0.85
-59.905313 57.601262 657.000000 0.85
-59.905313 58.753288 657.000000 0.85
-60.087673 60.087673 659.000000 0.85
-60.270033 61.429072 661.000000 0.85
-60.270033 62.588112 661.000000 0.85
-60.361213 63.843591 662.000000 0.85
-60.270033 64.906190 661.000000 0.85
-60.087673 65.865334 659.000000 0.85
-59.996493 66.919165 658.000000 0.85
-59.996493 68.072944 658.000000 0.85
-66.712257 2.616167 746.000000 0.85
-66.533403 3.913730 744.000000 0.85
-66.265124 5.197265 741.000000 0.85
-66.265124 6.496581 741.000000 0.85
-66.265124 7.795897 741.000000 0.85
-65.817991 9.033842 736.000000 0.85
-65.639137 10.296335 734.000000 0.85
-65.370857 11.536034 731.000000 0.85
-65.281431 12.800281 730.000000 0.85
-65.281431 14.080309 730.000000 0.85
-65.102578 15.318254 728.000000 0.85
-65.013151 16.571980 727.000000 0.85
-64.834298 17.797650 725.000000 0.85
-64.655445 19.016307 723.000000 0.85
-64.566018 20.256006 722.000000 0.85
-64.387165 21.462388 720.000000 0.85
-64.387165 22.724882 720.000000 0.85
-64.566018 24.054007 722.000000 0.85
-64.118885 25.144661 717.000000 0.85
-64.029458 26.365071 716.000000 0.85
-64.029458 27.620551 716.000000 0.85
-64.029458 28.876030 716.000000 0.85
-63.850605 30.047344 714.000000 0.85
-63.850605 31.299316 714.000000 0.85
-63.850605 32.551289 714.000000 0.85
-63.850605 33.803261 714.000000 0.85
-63.850605 35.055234 714.000000 0.85
-63.850605 36.307207 714.000000 0.85
-63.492898 37.348764 710.000000 0.85
-63.135192 38.376293 706.000000 0.85
-63.135192 39.614238 706.000000 0.85
-61.972646 40.099947 693.000000 0.85
-61.972646 41.315097 693.000000 0.85
-62.240926 42.714361 696.000000 0.85
-62.240926 43.934771 696.000000 0.85
-63.582325 61.088901 711.000000 0.85
-58.932141 57.776609 659.000000 0.85
-58.932141 58.932141 659.000000 0.85
-58.932141 60.087673 659.000000 0.85
-59.110994 61.429072 661.000000 0.85
-59.110994 62.588112 661.000000 0.85
-59.200421 63.843591 662.000000 0.85
-59.110994 64.906190 661.000000 0.85
-58.932141 65.865334 659.000000 0.85
-58.842714 66.919165 658.000000 0.85
-58.842714 68.072944 658.000000 0.85
-65.404173 1.308083 746.000000 0.85
-65.404173 2.616167 746.000000 0.85
-65.228827 3.913730 744.000000 0.85
-65.053481 5.204278 742.000000 0.85
-64.965807 6.496581 741.000000 0.85
-64.965807 7.795897 741.000000 0.85
-64.527442 9.033842 736.000000 0.85
-64.352095 10.296335 734.000000 0.85
-64.089076 11.536034 731.000000 0.85
-64.001403 12.800281 730.000000 0.85
-64.001403 14.080309 730.000000 0.85
-63.826056 15.318254 728.000000 0.85
-63.826056 16.594775 728.000000 0.85
-63.738383 17.846747 727.000000 0.85
-63.563037 19.068911 725.000000 0.85
-63.387691 20.284061 723.000000 0.85
-63.300018 21.522006 722.000000 0.85
-63.300018 22.788006 722.000000 0.85
-63.300018 24.054007 722.000000 0.85
-63.300018 25.320007 722.000000 0.85
-63.300018 26.586007 722.000000 0.85
-63.036998 27.736279 719.000000 0.85
-62.861652 28.916360 717.000000 0.85
-62.861652 30.173593 717.000000 0.85
-62.773979 31.386989 716.000000 0.85
-62.773979 32.642469 716.000000 0.85
-62.598632 33.803261 714.000000 0.85
-62.598632 35.055234 714.000000 0.85
-62.598632 36.307207 714.000000 0.85
-62.247940 37.348764 710.000000 0.85
-61.984920 38.430651 707.000000 0.85
-57.776609 57.776609 659.000000 0.85
-57.776609 58.932141 659.000000 0.85
-57.601262 59.905313 657.000000 0.85
-57.601262 61.057338 657.000000 0.85
-57.688936 62.304050 658.000000 0.85
-57.951955 63.747151 661.000000 0.85
-57.688936 64.611608 658.000000 0.85
-57.688936 65.765387 658.000000 0.85
-57.601262 66.817464 657.000000 0.85
-57.601262 67.969490 657.000000 0.85
-64.096090 1.308083 746.000000 0.85
-63.924250 2.609153 744.000000 0.85
-63.752411 3.903209 742.000000 0.85
-63.666491 5.197265 741.000000 0.85
-63.666491 6.496581 741.000000 0.85
-63.494652 7.774855 739.000000 0.85
-63.408732 9.058390 738.000000 0.85
-63.065053 10.296335 734.000000 0.85
-62.979134 11.567596 733.000000 0.85
-62.807294 12.817815 731.000000 0.85
-62.721375 14.080309 730.000000 0.85
-62.549535 15.318254 728.000000 0.85
-62.549535 16.594775 728.000000 0.85
-62.463616 17.846747 727.000000 0.85
-62.291776 19.068911 725.000000 0.85
-62.119937 20.284061 723.000000 0.85
-62.119937 21.551815 723.000000 0.85
-62.119937 22.819569 723.000000 0.85
-62.119937 24.087322 723.000000 0.85
-62.119937 25.355076 723.000000 0.85
-62.034017 26.586007 722.000000 0.85
-62.034017 27.852008 722.000000 0.85
-62.034017 29.118008 722.000000 0.85
-61.862178 30.299842 720.000000 0.85
-61.604419 31.430826 717.000000 0.85
-61.604419 32.688059 717.000000 0.85
-61.346660 33.803261 714.000000 0.85
-61.346660 35.055234 714.000000 0.85
-61.346660 36.307207 714.000000 0.85
-61.260740 37.506575 713.000000 0.85
-56.449237 59.905313 657.000000 0.85
-56.449237 61.057338 657.000000 0.85
-56.535157 62.304050 658.000000 0.85
-56.621077 63.554270 659.000000 0.85
-56.535157 64.611608 658.000000 0.85
-56.535157 65.765387 658.000000 0.85
-56.449237 66.817464 657.000000 0.85
-56.449237 67.969490 657.000000 0.85
-63.040505 0.000000 749.000000 0.85
-62.788006 1.308083 746.000000 0.85
-62.619674 2.609153 744.000000 0.85
-62.451341 3.903209 742.000000 0.85
-62.367175 5.197265 741.000000 0.85
-62.367175 6.496581 741.000000 0.85
-62.198843 7.774855 739.000000 0.85
-62.114676 9.058390 738.000000 0.85
-61.946344 10.324391 736.000000 0.85
-61.693845 11.567596 733.000000 0.85
-61.525513 12.817815 731.000000 0.85
-61.441347 14.080309 730.000000 0.85
-61.441347 15.360337 730.000000 0.85
-61.441347 16.640365 730.000000 0.85
-61.273014 17.871296 728.000000 0.85
-61.188848 19.121515 727.000000 0.85
-61.188848 20.396283 727.000000 0.85
-61.188848 21.671050 727.000000 0.85
-61.188848 22.945818 727.000000 0.85
-61.188848 24.220586 727.000000 0.85
-61.188848 25.495353 727.000000 0.85
-61.020516 26.696476 725.000000 0.85
-60.768017 27.852008 722.000000 0.85
-60.768017 29.118008 722.000000 0.85
-60.599684 30.299842 720.000000 0.85
-60.599684 31.562336 720.000000 0.85
-60.599684 32.824829 720.000000 0.85
-60.263019 33.897948 716.000000 0.85
-60.263019 35.153428 716.000000 0.85
-60.263019 36.408908 716.000000 0.85
-55.297212 61.057338 657.000000 0.85
-55.465544 62.398738 659.000000 0.85
-55.465544 63.554270 659.000000 0.85
-55.381378 64.611608 658.000000 0.85
-55.381378 65.765387 658.000000 0.85
-55.381378 66.919165 658.000000 0.85
-55.381378 68.072944 658.000000 0.85
-62.139225 -3.966334 754.000000 0.85
-62.139225 -2.644222 754.000000 0.85
-61.974399 -1.318604 752.000000 0.85
-61.727161 0.000000 749.000000 0.85
-61.727161 1.313344 749.000000 0.85
-61.562336 2.619674 747.000000 0.85
-61.150272 3.903209 742.000000 0.85
-61.067859 5.197265 741.000000 0.85
-60.903033 6.479046 739.000000 0.85
-60.903033 7.774855 739.000000 0.85
-60.820621 9.058390 738.000000 0.85
-60.655795 10.324391 736.000000 0.85
-60.490970 11.583377 734.000000 0.85
-60.408557 12.852884 733.000000 0.85
-60.243731 14.099597 731.000000 0.85
-60.161319 15.360337 730.000000 0.85
-60.161319 16.640365 730.000000 0.85
-60.161319 17.920393 730.000000 0.85
-59.996493 19.147817 728.000000 0.85
-59.996493 20.424338 728.000000 0.85
-59.996493 21.700859 728.000000 0.85
-59.996493 22.977380 728.000000 0.85
-59.996493 24.253901 728.000000 0.85
-59.996493 25.530423 728.000000 0.85
-59.996493 26.806944 728.000000 0.85
-59.914080 28.044889 727.000000 0.85
-59.914080 29.319656 727.000000 0.85
-59.584429 30.426092 723.000000 0.85
-59.502016 31.650009 722.000000 0.85
-59.337191 32.824829 720.000000 0.85
-59.337191 34.087322 720.000000 0.85
-60.161319 35.840786 730.000000 0.85
-58.183412 66.849027 706.000000 0.85
-54.557251 63.843591 662.000000 0.85
-54.474838 64.906190 661.000000 0.85
-54.227600 65.765387 658.000000 0.85
-54.227600 66.919165 658.000000 0.85
-60.817114 -3.966334 754.000000 0.85
-60.817114 -2.644222 754.000000 0.85
-60.494477 -1.315097 750.000000 0.85
-60.413817 0.000000 749.000000 0.85
-60.252499 1.309837 747.000000 0.85
-60.252499 2.619674 747.000000 0.85
-59.849202 3.903209 742.000000 0.85
-59.768543 5.197265 741.000000 0.85
-59.607224 6.479046 739.000000 0.85
-59.607224 7.774855 739.000000 0.85
-59.526565 9.058390 738.000000 0.85
-59.365246 10.324391 736.000000 0.85
-59.203928 11.583377 734.000000 0.85
-59.203928 12.870419 734.000000 0.85
-59.123268 14.138173 733.000000 0.85
-59.123268 15.423461 733.000000 0.85
-59.123268 16.708750 733.000000 0.85
-58.961950 17.944941 731.000000 0.85
-58.881291 19.200421 730.000000 0.85
-58.881291 20.480449 730.000000 0.85
-58.881291 21.760477 730.000000 0.85
-58.881291 23.040505 730.000000 0.85
-58.881291 24.320533 730.000000 0.85
-58.881291 25.600561 730.000000 0.85
-58.881291 26.880589 730.000000 0.85
-58.719972 28.083465 728.000000 0.85
-58.719972 29.359986 728.000000 0.85
-58.719972 30.636507 728.000000 0.85
-58.719972 31.913028 728.000000 0.85
-58.719972 33.189549 728.000000 0.85
-58.719972 34.466070 728.000000 0.85
-53.477117 63.940032 663.000000 0.85
-53.315799 64.906190 661.000000 0.85
-53.073821 65.765387 658.000000 0.85
-59.495003 -3.966334 754.000000 0.85
-59.495003 -2.644222 754.000000 0.85
-59.179379 -1.315097 750.000000 0.85
-59.100473 0.000000 749.000000 0.85
-58.942662 1.309837 747.000000 0.85
-58.942662 2.619674 747.000000 0.85
-58.705944 3.913730 744.000000 0.85
-58.548133 5.204278 742.000000 0.85
-58.469227 6.496581 741.000000 0.85
-58.469227 7.795897 741.000000 0.85
-58.311415 9.070665 739.000000 0.85
-58.232509 10.352446 738.000000 0.85
-58.074698 11.614940 736.000000 0.85
-58.074698 12.905488 736.000000 0.85
-57.916886 14.157461 734.000000 0.85
-57.916886 15.444503 734.000000 0.85
-57.837980 16.708750 733.000000 0.85
-57.837980 17.994038 733.000000 0.85
-57.837980 19.279327 733.000000 0.85
-57.837980 20.564615 733.000000 0.85
-57.837980 21.849904 733.000000 0.85
-57.837980 23.135192 733.000000 0.85
-57.837980 24.420480 733.000000 0.85
-57.680168 25.635630 731.000000 0.85
-57.680168 26.917412 731.000000 0.85
-57.680168 28.199193 731.000000 0.85
-57.680168 29.480975 731.000000 0.85
-57.680168 30.762756 731.000000 0.85
-57.837980 32.132211 733.000000 0.85
-57.680168 33.326319 731.000000 0.85
-57.680168 34.608101 731.000000 0.85
-58.172891 -3.966334 754.000000 0.85
-58.172891 -2.644222 754.000000 0.85
-58.172891 -1.322111 754.000000 0.85
-57.864282 0.000000 750.000000 0.85
-57.787130 1.313344 749.000000 0.85
-57.787130 2.626688 749.000000 0.85
-57.401368 3.913730 744.000000 0.85
-57.247063 5.204278 742.000000 0.85
-57.169911 6.496581 741.000000 0.85
-57.169911 7.795897 741.000000 0.85
-57.015606 9.070665 739.000000 0.85
-56.938453 10.352446 738.000000 0.85
-56.938453 11.646502 738.000000 0.85
-56.784149 12.905488 736.000000 0.85
-56.784149 14.196037 736.000000 0.85
-56.629844 15.444503 734.000000 0.85
-56.629844 16.731545 734.000000 0.85
-56.629844 18.018587 734.000000 0.85
-56.629844 19.305629 734.000000 0.85
-56.552692 20.564615 733.000000 0.85
-56.552692 21.849904 733.000000 0.85
-56.552692 23.135192 733.000000 0.85
-56.552692 24.420480 733.000000 0.85
-56.552692 25.705769 733.000000 0.85
-56.552692 26.991057 733.000000 0.85
-56.398387 28.199193 731.000000 0.85
-56.398387 29.480975 731.000000 0.85
-56.552692 30.846923 733.000000 0.85
-56.552692 32.132211 733.000000 0.85
-56.552692 33.417500 733.000000 0.85
-56.552692 34.702788 733.000000 0.85
-56.850780 -3.966334 754.000000 0.85
-56.850780 -2.644222 754.000000 0.85
-56.850780 -1.322111 754.000000 0.85
-56.699982 0.000000 752.000000 0.85
-56.473786 1.313344 749.000000 0.85
-56.473786 2.626688 749.000000 0.85
-56.096791 3.913730 744.000000 0.85
-55.945993 5.204278 742.000000 0.85
-55.870594 6.496581 741.000000 0.85
-55.870594 7.795897 741.000000 0.85
-55.870594 9.095213 741.000000 0.85
-55.719797 10.366474 739.000000 0.85
-55.719797 11.662283 739.000000 0.85
-55.644398 12.940558 738.000000 0.85
-55.644398 14.234613 738.000000 0.85
-55.493600 15.486586 736.000000 0.85
-55.342802 16.731545 734.000000 0.85
-55.342802 18.018587 734.000000 0.85
-55.342802 19.305629 734.000000 0.85
-55.342802 20.592671 734.000000 0.85
-55.342802 21.879712 734.000000 0.85
-55.342802 23.166754 734.000000 0.85
-55.342802 24.453796 734.000000 0.85
-55.342802 25.740838 734.000000 0.85
-55.342802 27.027880 734.000000 0.85
-55.342802 28.314922 734.000000 0.85
-55.342802 29.601964 734.000000 0.85
-55.342802 30.889006 734.000000 0.85
-55.342802 32.176048 734.000000 0.85
-55.342802 33.463090 734.000000 0.85
-55.602315 -3.971594 755.000000 0.85
-55.602315 -2.647729 755.000000 0.85
-55.602315 -1.323865 755.000000 0.85
-55.528669 0.000000 754.000000 0.85
-55.381378 1.318604 752.000000 0.85
-55.160442 2.626688 749.000000 0.85
-55.013151 3.929511 747.000000 0.85
-54.644924 5.204278 742.000000 0.85
-54.644924 6.505348 742.000000 0.85
-54.571278 7.795897 741.000000 0.85
-54.571278 9.095213 741.000000 0.85
-54.571278 10.394529 741.000000 0.85
-54.423987 11.662283 739.000000 0.85
-54.423987 12.958092 739.000000 0.85
-54.423987 14.253901 739.000000 0.85
-54.423987 15.549711 739.000000 0.85
-54.350342 16.822725 738.000000 0.85
-54.203051 18.067684 736.000000 0.85
-54.203051 19.358233 736.000000 0.85
-54.203051 20.648781 736.000000 0.85
-54.203051 21.939330 736.000000 0.85
-54.203051 23.229879 736.000000 0.85
-54.203051 24.520428 736.000000 0.85
-54.203051 25.810977 736.000000 0.85
-54.203051 27.101526 736.000000 0.85
-54.350342 28.469227 738.000000 0.85
-54.203051 29.682623 736.000000 0.85
-54.203051 30.973172 736.000000 0.85
-54.203051 32.263721 736.000000 0.85
-54.278450 -3.971594 755.000000 0.85
-54.278450 -2.647729 755.000000 0.85
-54.278450 -1.323865 755.000000 0.85
-54.206558 0.000000 754.000000 0.85
-54.062774 1.318604 752.000000 0.85
-54.062774 2.637208 752.000000 0.85
-53.847098 3.940032 749.000000 0.85
-53.487638 5.218306 744.000000 0.85
-53.343854 6.505348 742.000000 0.85
-53.343854 7.806418 742.000000 0.85
-53.343854 9.107487 742.000000 0.85
-53.271962 10.394529 741.000000 0.85
-53.271962 11.693845 741.000000 0.85
-53.271962 12.993161 741.000000 0.85
-53.271962 14.292478 741.000000 0.85
-53.128178 15.549711 739.000000 0.85
-53.128178 16.845520 739.000000 0.85
-53.128178 18.141329 739.000000 0.85
-53.128178 19.437138 739.000000 0.85
-53.056286 20.704892 738.000000 0.85
-53.056286 21.998948 738.000000 0.85
-53.056286 23.293004 738.000000 0.85
-53.056286 24.587059 738.000000 0.85
-53.056286 25.881115 738.000000 0.85
-53.056286 27.175171 738.000000 0.85
-53.056286 28.469227 738.000000 0.85
-53.056286 29.763282 738.000000 0.85
-53.056286 31.057338 738.000000 0.85
-53.235139 -5.323514 759.000000 0.85
-52.954585 -3.971594 755.000000 0.85
-52.954585 -2.647729 755.000000 0.85
-52.954585 -1.323865 755.000000 0.85
-52.884447 0.000000 754.000000 0.85
