ply
format ascii 1.0
comment
element vertex 1306
property float32 x
property float32 y
property float32 z
property float intensity
element face 0
property list uchar int vertex_indices
end_header
-6.251096 58.760302 713.000000 0.85
-6.251096 60.010521 713.000000 0.85
-5.028932 0.000000 717.000000 0.85
-5.028932 1.257233 717.000000 0.85
-5.028932 2.514466 717.000000 0.85
-5.021918 3.766439 716.000000 0.85
-5.021918 5.021918 716.000000 0.85
-5.000877 6.251096 713.000000 0.85
-4.986849 7.480274 711.000000 0.85
-4.986849 8.726986 711.000000 0.85
-4.979835 9.959670 710.000000 0.85
-4.965807 11.173067 708.000000 0.85
-4.965807 12.414519 708.000000 0.85
-4.958794 13.636682 707.000000 0.85
-4.951780 14.855339 706.000000 0.85
-4.951780 16.093284 706.000000 0.85
-4.951780 17.331229 706.000000 0.85
-4.930738 18.490268 703.000000 0.85
-4.930738 19.722953 703.000000 0.85
-4.930738 20.955637 703.000000 0.85
-4.930738 22.188322 703.000000 0.85
-4.916711 23.354375 701.000000 0.85
-4.916711 24.583553 701.000000 0.85
-4.916711 25.812730 701.000000 0.85
-4.916711 27.041908 701.000000 0.85
-4.909697 28.230756 700.000000 0.85
-4.909697 29.458180 700.000000 0.85
-4.909697 30.685604 700.000000 0.85
-4.909697 31.913028 700.000000 0.85
-4.909697 33.140452 700.000000 0.85
-4.909697 34.367877 700.000000 0.85
-4.909697 35.595301 700.000000 0.85
-4.909697 36.822725 700.000000 0.85
-4.916711 38.104506 701.000000 0.85
-4.916711 39.333684 701.000000 0.85
-4.930738 40.678590 703.000000 0.85
-4.930738 41.911275 703.000000 0.85
-4.930738 43.143959 703.000000 0.85
-4.937752 44.439769 704.000000 0.85
-4.937752 45.674207 704.000000 0.85
-4.951780 47.041908 706.000000 0.85
-4.951780 48.279853 706.000000 0.85
-4.958794 49.587936 707.000000 0.85
-4.965807 50.899527 708.000000 0.85
-4.965807 52.140978 708.000000 0.85
-4.979835 53.533228 710.000000 0.85
-4.986849 54.855339 711.000000 0.85
-4.986849 56.102052 711.000000 0.85
-5.000877 57.510082 713.000000 0.85
-5.000877 58.760302 713.000000 0.85
-5.000877 60.010521 713.000000 0.85
-5.000877 61.260740 713.000000 0.85
-6.002104 0.000000 1141.000000 0.85
-3.782220 1.260740 719.000000 0.85
-3.771699 2.514466 717.000000 0.85
-3.766439 3.766439 716.000000 0.85
-3.755918 5.007891 714.000000 0.85
-3.750658 6.251096 713.000000 0.85
-3.740137 7.480274 711.000000 0.85
-3.740137 8.726986 711.000000 0.85
-3.734876 9.959670 710.000000 0.85
-3.724356 11.173067 708.000000 0.85
-3.724356 12.414519 708.000000 0.85
-3.719095 13.636682 707.000000 0.85
-3.713835 14.855339 706.000000 0.85
-3.713835 16.093284 706.000000 0.85
-3.713835 17.331229 706.000000 0.85
-3.698054 18.490268 703.000000 0.85
-3.698054 19.722953 703.000000 0.85
-3.698054 20.955637 703.000000 0.85
-3.698054 22.188322 703.000000 0.85
-3.687533 23.354375 701.000000 0.85
-3.687533 24.583553 701.000000 0.85
-3.687533 25.812730 701.000000 0.85
-3.687533 27.041908 701.000000 0.85
-3.682272 28.230756 700.000000 0.85
-3.682272 29.458180 700.000000 0.85
-3.682272 30.685604 700.000000 0.85
-3.687533 31.958618 701.000000 0.85
-3.687533 33.187796 701.000000 0.85
-3.687533 34.416974 701.000000 0.85
-3.682272 35.595301 700.000000 0.85
-3.682272 36.822725 700.000000 0.85
-3.687533 38.104506 701.000000 0.85
-3.687533 39.333684 701.000000 0.85
-3.698054 40.678590 703.000000 0.85
-3.698054 41.911275 703.000000 0.85
-3.698054 43.143959 703.000000 0.85
-3.703314 44.439769 704.000000 0.85
-3.703314 45.674207 704.000000 0.85
-3.713835 47.041908 706.000000 0.85
-3.713835 48.279853 706.000000 0.85
-3.719095 49.587936 707.000000 0.85
-3.724356 50.899527 708.000000 0.85
-3.724356 52.140978 708.000000 0.85
-3.734876 53.533228 710.000000 0.85
-3.740137 54.855339 711.000000 0.85
-3.740137 56.102052 711.000000 0.85
-3.750658 57.510082 713.000000 0.85
-3.750658 58.760302 713.000000 0.85
-3.750658 60.010521 713.000000 0.85
-3.750658 61.260740 713.000000 0.85
-4.015430 0.000000 1145.000000 0.85
-2.521480 1.260740 719.000000 0.85
-2.514466 2.514466 717.000000 0.85
-2.510959 3.766439 716.000000 0.85
-2.503945 5.007891 714.000000 0.85
-2.500438 6.251096 713.000000 0.85
-2.493425 7.480274 711.000000 0.85
-2.493425 8.726986 711.000000 0.85
-2.489918 9.959670 710.000000 0.85
-2.482904 11.173067 708.000000 0.85
-2.482904 12.414519 708.000000 0.85
-2.479397 13.636682 707.000000 0.85
-2.475890 14.855339 706.000000 0.85
-2.475890 16.093284 706.000000 0.85
-2.475890 17.331229 706.000000 0.85
-2.468876 18.516570 704.000000 0.85
-2.468876 19.751008 704.000000 0.85
-2.465369 20.955637 703.000000 0.85
-2.465369 22.188322 703.000000 0.85
-2.458355 23.354375 701.000000 0.85
-2.458355 24.583553 701.000000 0.85
-2.458355 25.812730 701.000000 0.85
-2.458355 27.041908 701.000000 0.85
-2.458355 28.271085 701.000000 0.85
-2.458355 29.500263 701.000000 0.85
-2.458355 30.729441 701.000000 0.85
-2.458355 31.958618 701.000000 0.85
-2.454848 33.140452 700.000000 0.85
-2.454848 34.367877 700.000000 0.85
-2.458355 35.646151 701.000000 0.85
-2.458355 36.875329 701.000000 0.85
-2.458355 38.104506 701.000000 0.85
-2.458355 39.333684 701.000000 0.85
-2.465369 40.678590 703.000000 0.85
-2.465369 41.911275 703.000000 0.85
-2.465369 43.143959 703.000000 0.85
-2.468876 44.439769 704.000000 0.85
-2.468876 45.674207 704.000000 0.85
-2.475890 47.041908 706.000000 0.85
-2.475890 48.279853 706.000000 0.85
-2.479397 49.587936 707.000000 0.85
-2.479397 50.827635 707.000000 0.85
-2.482904 52.140978 708.000000 0.85
-2.489918 53.533228 710.000000 0.85
-2.493425 54.855339 711.000000 0.85
-2.500438 56.259863 713.000000 0.85
-2.500438 57.510082 713.000000 0.85
-2.500438 58.760302 713.000000 0.85
-2.500438 60.010521 713.000000 0.85
-2.500438 61.260740 713.000000 0.85
-2.007715 0.000000 1145.000000 0.85
-1.255480 1.255480 716.000000 0.85
-1.255480 2.510959 716.000000 0.85
-1.255480 3.766439 716.000000 0.85
-1.251973 5.007891 714.000000 0.85
-1.250219 6.251096 713.000000 0.85
-1.246712 7.480274 711.000000 0.85
-1.246712 8.726986 711.000000 0.85
-1.244959 9.959670 710.000000 0.85
-1.241452 11.173067 708.000000 0.85
-1.239698 12.396984 707.000000 0.85
-1.237945 13.617394 706.000000 0.85
-1.237945 14.855339 706.000000 0.85
-1.234438 16.047694 704.000000 0.85
-1.234438 17.282132 704.000000 0.85
-1.234438 18.516570 704.000000 0.85
-1.234438 19.751008 704.000000 0.85
-1.234438 20.985446 704.000000 0.85
-1.232685 22.188322 703.000000 0.85
-1.232685 23.421006 703.000000 0.85
-1.232685 24.653691 703.000000 0.85
-1.232685 25.886376 703.000000 0.85
-1.232685 27.119060 703.000000 0.85
-1.229178 28.271085 701.000000 0.85
-1.229178 29.500263 701.000000 0.85
-1.229178 30.729441 701.000000 0.85
-1.229178 31.958618 701.000000 0.85
-1.227424 33.140452 700.000000 0.85
-1.227424 34.367877 700.000000 0.85
-1.229178 35.646151 701.000000 0.85
-1.229178 36.875329 701.000000 0.85
-1.229178 38.104506 701.000000 0.85
-1.229178 39.333684 701.000000 0.85
-1.232685 40.678590 703.000000 0.85
-1.232685 41.911275 703.000000 0.85
-1.232685 43.143959 703.000000 0.85
-1.234438 44.439769 704.000000 0.85
-1.234438 45.674207 704.000000 0.85
-1.237945 47.041908 706.000000 0.85
-1.237945 48.279853 706.000000 0.85
-1.239698 49.587936 707.000000 0.85
-1.239698 50.827635 707.000000 0.85
-1.241452 52.140978 708.000000 0.85
-1.244959 53.533228 710.000000 0.85
-1.246712 54.855339 711.000000 0.85
-1.246712 56.102052 711.000000 0.85
-1.250219 57.510082 713.000000 0.85
-1.250219 58.760302 713.000000 0.85
-1.250219 60.010521 713.000000 0.85
0.000000 0.000000 1149.000000 0.85
0.000000 1.255480 716.000000 0.85
0.000000 2.503945 714.000000 0.85
0.000000 3.755918 714.000000 0.85
0.000000 5.007891 714.000000 0.85
0.000000 6.251096 713.000000 0.85
0.000000 7.501315 713.000000 0.85
0.000000 8.726986 711.000000 0.85
0.000000 9.959670 710.000000 0.85
0.000000 11.173067 708.000000 0.85
0.000000 12.396984 707.000000 0.85
0.000000 13.617394 706.000000 0.85
0.000000 14.855339 706.000000 0.85
0.000000 16.047694 704.000000 0.85
0.000000 17.282132 704.000000 0.85
0.000000 18.516570 704.000000 0.85
0.000000 19.751008 704.000000 0.85
0.000000 20.985446 704.000000 0.85
0.000000 22.188322 703.000000 0.85
0.000000 23.421006 703.000000 0.85
0.000000 24.653691 703.000000 0.85
0.000000 25.886376 703.000000 0.85
0.000000 27.119060 703.000000 0.85
0.000000 28.271085 701.000000 0.85
0.000000 29.500263 701.000000 0.85
0.000000 30.729441 701.000000 0.85
0.000000 31.958618 701.000000 0.85
0.000000 33.140452 700.000000 0.85
0.000000 34.367877 700.000000 0.85
0.000000 35.646151 701.000000 0.85
0.000000 36.875329 701.000000 0.85
0.000000 38.104506 701.000000 0.85
0.000000 39.333684 701.000000 0.85
0.000000 40.678590 703.000000 0.85
0.000000 41.911275 703.000000 0.85
0.000000 43.143959 703.000000 0.85
0.000000 44.439769 704.000000 0.85
0.000000 45.674207 704.000000 0.85
0.000000 47.041908 706.000000 0.85
0.000000 48.279853 706.000000 0.85
0.000000 49.587936 707.000000 0.85
0.000000 50.899527 708.000000 0.85
0.000000 52.288269 710.000000 0.85
0.000000 53.533228 710.000000 0.85
0.000000 54.855339 711.000000 0.85
0.000000 56.102052 711.000000 0.85
0.000000 57.510082 713.000000 0.85
0.000000 58.760302 713.000000 0.85
0.000000 60.010521 713.000000 0.85
1.255480 1.255480 716.000000 0.85
1.251973 2.503945 714.000000 0.85
1.251973 3.755918 714.000000 0.85
1.251973 5.007891 714.000000 0.85
1.250219 6.251096 713.000000 0.85
1.246712 7.480274 711.000000 0.85
1.246712 8.726986 711.000000 0.85
1.244959 9.959670 710.000000 0.85
1.241452 11.173067 708.000000 0.85
1.239698 12.396984 707.000000 0.85
1.237945 13.617394 706.000000 0.85
1.237945 14.855339 706.000000 0.85
1.234438 16.047694 704.000000 0.85
1.234438 17.282132 704.000000 0.85
1.234438 18.516570 704.000000 0.85
1.234438 19.751008 704.000000 0.85
1.234438 20.985446 704.000000 0.85
1.232685 22.188322 703.000000 0.85
1.232685 23.421006 703.000000 0.85
1.232685 24.653691 703.000000 0.85
1.232685 25.886376 703.000000 0.85
1.232685 27.119060 703.000000 0.85
1.229178 28.271085 701.000000 0.85
1.229178 29.500263 701.000000 0.85
1.229178 30.729441 701.000000 0.85
1.229178 31.958618 701.000000 0.85
1.229178 33.187796 701.000000 0.85
1.229178 34.416974 701.000000 0.85
1.229178 35.646151 701.000000 0.85
1.229178 36.875329 701.000000 0.85
1.229178 38.104506 701.000000 0.85
1.229178 39.333684 701.000000 0.85
1.232685 40.678590 703.000000 0.85
1.232685 41.911275 703.000000 0.85
1.232685 43.143959 703.000000 0.85
1.234438 44.439769 704.000000 0.85
1.234438 45.674207 704.000000 0.85
1.237945 47.041908 706.000000 0.85
1.237945 48.279853 706.000000 0.85
1.239698 49.587936 707.000000 0.85
1.244959 51.043311 710.000000 0.85
1.244959 52.288269 710.000000 0.85
1.246712 53.608627 711.000000 0.85
1.246712 54.855339 711.000000 0.85
1.250219 56.259863 713.000000 0.85
1.250219 57.510082 713.000000 0.85
1.250219 58.760302 713.000000 0.85
1.250219 60.010521 713.000000 0.85
4.029458 2.014729 1149.000000 0.85
2.510959 2.510959 716.000000 0.85
2.503945 3.755918 714.000000 0.85
2.503945 5.007891 714.000000 0.85
2.503945 6.259863 714.000000 0.85
2.493425 7.480274 711.000000 0.85
2.489918 8.714712 710.000000 0.85
2.489918 9.959670 710.000000 0.85
2.482904 11.173067 708.000000 0.85
2.479397 12.396984 707.000000 0.85
2.475890 13.617394 706.000000 0.85
2.475890 14.855339 706.000000 0.85
2.468876 16.047694 704.000000 0.85
2.468876 17.282132 704.000000 0.85
2.468876 18.516570 704.000000 0.85
2.468876 19.751008 704.000000 0.85
2.468876 20.985446 704.000000 0.85
2.468876 22.219884 704.000000 0.85
2.468876 23.454322 704.000000 0.85
2.465369 24.653691 703.000000 0.85
2.465369 25.886376 703.000000 0.85
2.465369 27.119060 703.000000 0.85
2.465369 28.351745 703.000000 0.85
2.465369 29.584429 703.000000 0.85
2.458355 30.729441 701.000000 0.85
2.458355 31.958618 701.000000 0.85
2.458355 33.187796 701.000000 0.85
2.458355 34.416974 701.000000 0.85
2.458355 35.646151 701.000000 0.85
2.458355 36.875329 701.000000 0.85
2.465369 38.213221 703.000000 0.85
2.465369 39.445906 703.000000 0.85
2.465369 40.678590 703.000000 0.85
2.465369 41.911275 703.000000 0.85
2.468876 43.205331 704.000000 0.85
2.475890 44.566018 706.000000 0.85
2.475890 45.803963 706.000000 0.85
2.475890 47.041908 706.000000 0.85
2.479397 48.348238 707.000000 0.85
2.482904 49.658075 708.000000 0.85
2.489918 51.043311 710.000000 0.85
2.489918 52.288269 710.000000 0.85
2.493425 53.608627 711.000000 0.85
2.500438 55.009644 713.000000 0.85
2.500438 56.259863 713.000000 0.85
2.503945 57.590742 714.000000 0.85
2.503945 58.842714 714.000000 0.85
2.510959 60.263019 716.000000 0.85
6.044187 2.014729 1149.000000 0.85
3.766439 2.510959 716.000000 0.85
3.755918 3.755918 714.000000 0.85
3.755918 5.007891 714.000000 0.85
3.755918 6.259863 714.000000 0.85
3.740137 7.480274 711.000000 0.85
3.734876 8.714712 710.000000 0.85
3.734876 9.959670 710.000000 0.85
3.724356 11.173067 708.000000 0.85
3.719095 12.396984 707.000000 0.85
3.713835 13.617394 706.000000 0.85
3.713835 14.855339 706.000000 0.85
3.713835 16.093284 706.000000 0.85
3.703314 17.282132 704.000000 0.85
3.703314 18.516570 704.000000 0.85
3.703314 19.751008 704.000000 0.85
3.703314 20.985446 704.000000 0.85
3.703314 22.219884 704.000000 0.85
3.703314 23.454322 704.000000 0.85
3.698054 24.653691 703.000000 0.85
3.698054 25.886376 703.000000 0.85
3.698054 27.119060 703.000000 0.85
3.703314 28.392074 704.000000 0.85
3.703314 29.626512 704.000000 0.85
3.687533 30.729441 701.000000 0.85
3.687533 31.958618 701.000000 0.85
3.698054 33.282483 703.000000 0.85
3.698054 34.515167 703.000000 0.85
3.698054 35.747852 703.000000 0.85
3.698054 36.980537 703.000000 0.85
3.698054 38.213221 703.000000 0.85
3.698054 39.445906 703.000000 0.85
3.703314 40.736454 704.000000 0.85
3.703314 41.970893 704.000000 0.85
3.703314 43.205331 704.000000 0.85
3.713835 44.566018 706.000000 0.85
3.713835 45.803963 706.000000 0.85
3.719095 47.108539 707.000000 0.85
3.724356 48.416623 708.000000 0.85
3.734876 49.798352 710.000000 0.85
3.734876 51.043311 710.000000 0.85
3.740137 52.361915 711.000000 0.85
3.740137 53.608627 711.000000 0.85
3.750658 55.009644 713.000000 0.85
3.750658 56.259863 713.000000 0.85
3.755918 57.590742 714.000000 0.85
3.755918 58.842714 714.000000 0.85
3.766439 60.263019 716.000000 0.85
8.058916 2.014729 1149.000000 0.85
5.021918 2.510959 716.000000 0.85
5.021918 3.766439 716.000000 0.85
5.021918 5.021918 716.000000 0.85
5.007891 6.259863 714.000000 0.85
4.986849 7.480274 711.000000 0.85
4.986849 8.726986 711.000000 0.85
4.979835 9.959670 710.000000 0.85
4.979835 11.204629 710.000000 0.85
4.965807 12.414519 708.000000 0.85
4.958794 13.636682 707.000000 0.85
4.951780 14.855339 706.000000 0.85
4.951780 16.093284 706.000000 0.85
4.951780 17.331229 706.000000 0.85
4.937752 18.516570 704.000000 0.85
4.937752 19.751008 704.000000 0.85
4.937752 20.985446 704.000000 0.85
4.937752 22.219884 704.000000 0.85
4.937752 23.454322 704.000000 0.85
4.937752 24.688760 704.000000 0.85
4.937752 25.923198 704.000000 0.85
4.937752 27.157636 704.000000 0.85
4.937752 28.392074 704.000000 0.85
4.937752 29.626512 704.000000 0.85
4.930738 30.817114 703.000000 0.85
4.930738 32.049798 703.000000 0.85
4.930738 33.282483 703.000000 0.85
4.930738 34.515167 703.000000 0.85
4.930738 35.747852 703.000000 0.85
4.930738 36.980537 703.000000 0.85
4.937752 38.267578 704.000000 0.85
4.937752 39.502016 704.000000 0.85
4.937752 40.736454 704.000000 0.85
4.937752 41.970893 704.000000 0.85
4.951780 43.328073 706.000000 0.85
4.951780 44.566018 706.000000 0.85
4.958794 45.868841 707.000000 0.85
4.958794 47.108539 707.000000 0.85
4.965807 48.416623 708.000000 0.85
4.979835 49.798352 710.000000 0.85
4.979835 51.043311 710.000000 0.85
4.979835 52.288269 710.000000 0.85
4.986849 53.608627 711.000000 0.85
5.000877 55.009644 713.000000 0.85
5.000877 56.259863 713.000000 0.85
5.007891 57.590742 714.000000 0.85
5.021918 59.007540 716.000000 0.85
5.042960 60.515518 719.000000 0.85
10.073645 2.014729 1149.000000 0.85
6.277398 2.510959 716.000000 0.85
6.277398 3.766439 716.000000 0.85
6.277398 5.021918 716.000000 0.85
6.259863 6.259863 714.000000 0.85
6.251096 7.501315 713.000000 0.85
6.233561 8.726986 711.000000 0.85
6.233561 9.973698 711.000000 0.85
6.224794 11.204629 710.000000 0.85
6.207259 12.414519 708.000000 0.85
6.207259 13.655971 708.000000 0.85
6.189725 14.855339 706.000000 0.85
6.189725 16.093284 706.000000 0.85
6.189725 17.331229 706.000000 0.85
6.189725 18.569174 706.000000 0.85
6.172190 19.751008 704.000000 0.85
6.172190 20.985446 704.000000 0.85
6.172190 22.219884 704.000000 0.85
6.172190 23.454322 704.000000 0.85
6.172190 24.688760 704.000000 0.85
6.172190 25.923198 704.000000 0.85
6.172190 27.157636 704.000000 0.85
6.172190 28.392074 704.000000 0.85
6.172190 29.626512 704.000000 0.85
6.163423 30.817114 703.000000 0.85
6.163423 32.049798 703.000000 0.85
6.163423 33.282483 703.000000 0.85
6.163423 34.515167 703.000000 0.85
6.163423 35.747852 703.000000 0.85
6.163423 36.980537 703.000000 0.85
6.172190 38.267578 704.000000 0.85
6.172190 39.502016 704.000000 0.85
6.172190 40.736454 704.000000 0.85
6.172190 41.970893 704.000000 0.85
6.189725 43.328073 706.000000 0.85
6.189725 44.566018 706.000000 0.85
6.198492 45.868841 707.000000 0.85
6.198492 47.108539 707.000000 0.85
6.207259 48.416623 708.000000 0.85
6.207259 49.658075 708.000000 0.85
6.224794 51.043311 710.000000 0.85
6.224794 52.288269 710.000000 0.85
6.233561 53.608627 711.000000 0.85
6.251096 55.009644 713.000000 0.85
6.259863 56.338769 714.000000 0.85
6.277398 57.752060 716.000000 0.85
6.286165 59.089953 717.000000 0.85
7.532877 2.510959 716.000000 0.85
7.532877 3.766439 716.000000 0.85
7.532877 5.021918 716.000000 0.85
7.511836 6.259863 714.000000 0.85
7.501315 7.501315 713.000000 0.85
7.480274 8.726986 711.000000 0.85
7.480274 9.973698 711.000000 0.85
7.469753 11.204629 710.000000 0.85
7.448711 12.414519 708.000000 0.85
7.448711 13.655971 708.000000 0.85
7.427670 14.855339 706.000000 0.85
7.427670 16.093284 706.000000 0.85
7.427670 17.331229 706.000000 0.85
7.427670 18.569174 706.000000 0.85
7.406628 19.751008 704.000000 0.85
7.406628 20.985446 704.000000 0.85
7.406628 22.219884 704.000000 0.85
7.406628 23.454322 704.000000 0.85
7.406628 24.688760 704.000000 0.85
7.406628 25.923198 704.000000 0.85
7.406628 27.157636 704.000000 0.85
7.406628 28.392074 704.000000 0.85
7.406628 29.626512 704.000000 0.85
7.396107 30.817114 703.000000 0.85
7.396107 32.049798 703.000000 0.85
7.396107 33.282483 703.000000 0.85
7.396107 34.515167 703.000000 0.85
7.396107 35.747852 703.000000 0.85
7.406628 37.033140 704.000000 0.85
7.406628 38.267578 704.000000 0.85
7.406628 39.502016 704.000000 0.85
7.406628 40.736454 704.000000 0.85
7.427670 42.090128 706.000000 0.85
7.427670 43.328073 706.000000 0.85
7.438190 44.629143 707.000000 0.85
7.438190 45.868841 707.000000 0.85
7.448711 47.175171 708.000000 0.85
7.448711 48.416623 708.000000 0.85
7.448711 49.658075 708.000000 0.85
7.469753 51.043311 710.000000 0.85
7.469753 52.288269 710.000000 0.85
7.480274 53.608627 711.000000 0.85
7.501315 55.009644 713.000000 0.85
7.511836 56.338769 714.000000 0.85
7.532877 57.752060 716.000000 0.85
7.543398 59.089953 717.000000 0.85
14.054007 4.015430 1145.000000 0.85
8.800631 3.771699 717.000000 0.85
8.800631 5.028932 717.000000 0.85
8.763809 6.259863 714.000000 0.85
8.751534 7.501315 713.000000 0.85
8.726986 8.726986 711.000000 0.85
8.726986 9.973698 711.000000 0.85
8.726986 11.220410 711.000000 0.85
8.714712 12.449588 710.000000 0.85
8.690163 13.655971 708.000000 0.85
8.690163 14.897422 708.000000 0.85
8.677889 16.116079 707.000000 0.85
8.665615 17.331229 706.000000 0.85
8.665615 18.569174 706.000000 0.85
8.665615 19.807119 706.000000 0.85
8.641066 20.985446 704.000000 0.85
8.641066 22.219884 704.000000 0.85
8.641066 23.454322 704.000000 0.85
8.641066 24.688760 704.000000 0.85
8.641066 25.923198 704.000000 0.85
8.641066 27.157636 704.000000 0.85
8.641066 28.392074 704.000000 0.85
8.641066 29.626512 704.000000 0.85
8.641066 30.860950 704.000000 0.85
8.641066 32.095388 704.000000 0.85
8.641066 33.329826 704.000000 0.85
8.641066 34.564264 704.000000 0.85
8.641066 35.798702 704.000000 0.85
8.641066 37.033140 704.000000 0.85
8.641066 38.267578 704.000000 0.85
8.641066 39.502016 704.000000 0.85
8.665615 40.852183 706.000000 0.85
8.665615 42.090128 706.000000 0.85
8.677889 43.389444 707.000000 0.85
8.677889 44.629143 707.000000 0.85
8.690163 45.933719 708.000000 0.85
8.690163 47.175171 708.000000 0.85
8.690163 48.416623 708.000000 0.85
8.714712 49.798352 710.000000 0.85
8.714712 51.043311 710.000000 0.85
8.726986 52.361915 711.000000 0.85
8.751534 53.759425 713.000000 0.85
8.763809 55.086796 714.000000 0.85
8.763809 56.338769 714.000000 0.85
8.800631 57.832720 717.000000 0.85
8.825180 59.254778 719.000000 0.85
16.061722 4.015430 1145.000000 0.85
10.085920 3.782220 719.000000 0.85
10.057864 5.028932 717.000000 0.85
10.043837 6.277398 716.000000 0.85
10.001753 7.501315 713.000000 0.85
10.001753 8.751534 713.000000 0.85
9.973698 9.973698 711.000000 0.85
9.973698 11.220410 711.000000 0.85
9.959670 12.449588 710.000000 0.85
9.959670 13.694547 710.000000 0.85
9.959670 14.939506 710.000000 0.85
9.931615 16.138874 708.000000 0.85
9.917587 17.355778 707.000000 0.85
9.917587 18.595476 707.000000 0.85
9.903560 19.807119 706.000000 0.85
9.903560 21.045064 706.000000 0.85
9.903560 22.283009 706.000000 0.85
9.875504 23.454322 704.000000 0.85
9.875504 24.688760 704.000000 0.85
9.875504 25.923198 704.000000 0.85
9.875504 27.157636 704.000000 0.85
9.875504 28.392074 704.000000 0.85
9.875504 29.626512 704.000000 0.85
9.875504 30.860950 704.000000 0.85
9.875504 32.095388 704.000000 0.85
9.875504 33.329826 704.000000 0.85
9.875504 34.564264 704.000000 0.85
9.875504 35.798702 704.000000 0.85
9.875504 37.033140 704.000000 0.85
9.875504 38.267578 704.000000 0.85
9.903560 39.614238 706.000000 0.85
9.903560 40.852183 706.000000 0.85
9.903560 42.090128 706.000000 0.85
9.917587 43.389444 707.000000 0.85
9.931615 44.692267 708.000000 0.85
9.931615 45.933719 708.000000 0.85
9.959670 47.308434 710.000000 0.85
9.959670 48.553393 710.000000 0.85
9.959670 49.798352 710.000000 0.85
9.973698 51.115203 711.000000 0.85
9.973698 52.361915 711.000000 0.85
10.015781 53.834824 714.000000 0.85
10.043837 55.241101 716.000000 0.85
10.043837 56.496581 716.000000 0.85
10.057864 57.832720 717.000000 0.85
17.958969 3.990882 1138.000000 0.85
11.346660 3.782220 719.000000 0.85
11.346660 5.042960 719.000000 0.85
11.299316 6.277398 716.000000 0.85
11.251973 7.501315 713.000000 0.85
11.251973 8.751534 713.000000 0.85
11.251973 10.001753 713.000000 0.85
11.220410 11.220410 711.000000 0.85
11.220410 12.467123 711.000000 0.85
11.204629 13.694547 710.000000 0.85
11.204629 14.939506 710.000000 0.85
11.204629 16.184464 710.000000 0.85
11.173067 17.380326 708.000000 0.85
11.173067 18.621778 708.000000 0.85
11.157286 19.835174 707.000000 0.85
11.141504 21.045064 706.000000 0.85
11.141504 22.283009 706.000000 0.85
11.141504 23.520954 706.000000 0.85
11.109942 24.688760 704.000000 0.85
11.109942 25.923198 704.000000 0.85
11.109942 27.157636 704.000000 0.85
11.109942 28.392074 704.000000 0.85
11.109942 29.626512 704.000000 0.85
11.109942 30.860950 704.000000 0.85
11.109942 32.095388 704.000000 0.85
11.109942 33.329826 704.000000 0.85
11.109942 34.564264 704.000000 0.85
11.109942 35.798702 704.000000 0.85
11.141504 37.138348 706.000000 0.85
11.141504 38.376293 706.000000 0.85
11.141504 39.614238 706.000000 0.85
11.141504 40.852183 706.000000 0.85
11.157286 42.149746 707.000000 0.85
11.157286 43.389444 707.000000 0.85
11.173067 44.692267 708.000000 0.85
11.173067 45.933719 708.000000 0.85
11.204629 47.308434 710.000000 0.85
11.204629 48.553393 710.000000 0.85
11.204629 49.798352 710.000000 0.85
11.220410 51.115203 711.000000 0.85
11.251973 52.509206 713.000000 0.85
11.267754 53.834824 714.000000 0.85
11.299316 55.241101 716.000000 0.85
11.315097 56.575487 717.000000 0.85
12.607400 3.782220 719.000000 0.85
12.607400 5.042960 719.000000 0.85
12.554796 6.277398 716.000000 0.85
12.519726 7.511836 714.000000 0.85
12.519726 8.763809 714.000000 0.85
12.502192 10.001753 713.000000 0.85
12.502192 11.251973 713.000000 0.85
12.467123 12.467123 711.000000 0.85
12.467123 13.713835 711.000000 0.85
12.449588 14.939506 710.000000 0.85
12.449588 16.184464 710.000000 0.85
12.449588 17.429423 710.000000 0.85
12.414519 18.621778 708.000000 0.85
12.396984 19.835174 707.000000 0.85
12.396984 21.074873 707.000000 0.85
12.396984 22.314571 707.000000 0.85
12.379449 23.520954 706.000000 0.85
12.344380 24.688760 704.000000 0.85
12.344380 25.923198 704.000000 0.85
12.379449 27.234789 706.000000 0.85
12.379449 28.472734 706.000000 0.85
12.379449 29.710679 706.000000 0.85
12.344380 30.860950 704.000000 0.85
12.344380 32.095388 704.000000 0.85
12.344380 33.329826 704.000000 0.85
12.379449 34.662458 706.000000 0.85
12.379449 35.900403 706.000000 0.85
12.379449 37.138348 706.000000 0.85
12.379449 38.376293 706.000000 0.85
12.379449 39.614238 706.000000 0.85
12.379449 40.852183 706.000000 0.85
12.396984 42.149746 707.000000 0.85
12.396984 43.389444 707.000000 0.85
12.414519 44.692267 708.000000 0.85
12.414519 45.933719 708.000000 0.85
12.449588 47.308434 710.000000 0.85
12.449588 48.553393 710.000000 0.85
12.449588 49.798352 710.000000 0.85
12.467123 51.115203 711.000000 0.85
12.519726 52.582851 714.000000 0.85
12.554796 53.985622 716.000000 0.85
12.572330 55.318254 717.000000 0.85
22.162020 6.044187 1149.000000 0.85
13.810275 5.021918 716.000000 0.85
13.810275 6.277398 716.000000 0.85
13.771699 7.511836 714.000000 0.85
13.771699 8.763809 714.000000 0.85
13.771699 10.015781 714.000000 0.85
13.752411 11.251973 713.000000 0.85
13.752411 12.502192 713.000000 0.85
13.713835 13.713835 711.000000 0.85
13.713835 14.960547 711.000000 0.85
13.694547 16.184464 710.000000 0.85
13.694547 17.429423 710.000000 0.85
13.655971 18.621778 708.000000 0.85
13.636682 19.835174 707.000000 0.85
13.636682 21.074873 707.000000 0.85
13.636682 22.314571 707.000000 0.85
13.617394 23.520954 706.000000 0.85
13.617394 24.758899 706.000000 0.85
13.617394 25.996844 706.000000 0.85
13.617394 27.234789 706.000000 0.85
13.617394 28.472734 706.000000 0.85
13.617394 29.710679 706.000000 0.85
13.617394 30.948624 706.000000 0.85
13.617394 32.186568 706.000000 0.85
13.617394 33.424513 706.000000 0.85
13.617394 34.662458 706.000000 0.85
13.617394 35.900403 706.000000 0.85
13.617394 37.138348 706.000000 0.85
13.617394 38.376293 706.000000 0.85
13.617394 39.614238 706.000000 0.85
13.636682 40.910047 707.000000 0.85
13.636682 42.149746 707.000000 0.85
13.655971 43.450815 708.000000 0.85
13.655971 44.692267 708.000000 0.85
13.694547 46.063475 710.000000 0.85
13.694547 47.308434 710.000000 0.85
13.694547 48.553393 710.000000 0.85
13.713835 49.868490 711.000000 0.85
13.752411 51.258986 713.000000 0.85
13.810275 52.730142 716.000000 0.85
13.829563 54.061021 717.000000 0.85
13.829563 55.318254 717.000000 0.85
24.176749 6.044187 1149.000000 0.85
15.086796 5.028932 717.000000 0.85
15.086796 6.286165 717.000000 0.85
15.065755 7.532877 716.000000 0.85
15.065755 8.788357 716.000000 0.85
15.065755 10.043837 716.000000 0.85
15.023672 11.267754 714.000000 0.85
15.002630 12.502192 713.000000 0.85
15.002630 13.752411 713.000000 0.85
14.960547 14.960547 711.000000 0.85
14.960547 16.207259 711.000000 0.85
14.960547 17.453972 711.000000 0.85
14.939506 18.674382 710.000000 0.85
14.897422 19.863230 708.000000 0.85
14.897422 21.104682 708.000000 0.85
14.897422 22.346134 708.000000 0.85
14.855339 23.520954 706.000000 0.85
14.855339 24.758899 706.000000 0.85
14.855339 25.996844 706.000000 0.85
14.855339 27.234789 706.000000 0.85
14.855339 28.472734 706.000000 0.85
14.855339 29.710679 706.000000 0.85
14.855339 30.948624 706.000000 0.85
14.855339 32.186568 706.000000 0.85
14.855339 33.424513 706.000000 0.85
14.855339 34.662458 706.000000 0.85
14.855339 35.900403 706.000000 0.85
14.855339 37.138348 706.000000 0.85
14.876381 38.430651 707.000000 0.85
14.876381 39.670349 707.000000 0.85
14.876381 40.910047 707.000000 0.85
14.897422 42.209363 708.000000 0.85
14.897422 43.450815 708.000000 0.85
14.897422 44.692267 708.000000 0.85
14.939506 46.063475 710.000000 0.85
14.939506 47.308434 710.000000 0.85
14.960547 48.621778 711.000000 0.85
14.960547 49.868490 711.000000 0.85
15.023672 51.330878 714.000000 0.85
15.065755 52.730142 716.000000 0.85
15.065755 53.985622 716.000000 0.85
15.086796 55.318254 717.000000 0.85
16.344029 5.028932 717.000000 0.85
16.344029 6.286165 717.000000 0.85
16.344029 7.543398 717.000000 0.85
16.344029 8.800631 717.000000 0.85
16.344029 10.057864 717.000000 0.85
16.321234 11.299316 716.000000 0.85
16.275644 12.519726 714.000000 0.85
16.252849 13.752411 713.000000 0.85
16.252849 15.002630 713.000000 0.85
16.207259 16.207259 711.000000 0.85
16.207259 17.453972 711.000000 0.85
16.184464 18.674382 710.000000 0.85
16.184464 19.919341 710.000000 0.85
16.138874 21.104682 708.000000 0.85
16.138874 22.346134 708.000000 0.85
16.093284 23.520954 706.000000 0.85
16.093284 24.758899 706.000000 0.85
16.093284 25.996844 706.000000 0.85
16.116079 27.273365 707.000000 0.85
16.093284 28.472734 706.000000 0.85
16.093284 29.710679 706.000000 0.85
16.093284 30.948624 706.000000 0.85
16.093284 32.186568 706.000000 0.85
16.093284 33.424513 706.000000 0.85
16.093284 34.662458 706.000000 0.85
16.093284 35.900403 706.000000 0.85
16.093284 37.138348 706.000000 0.85
16.116079 38.430651 707.000000 0.85
16.116079 39.670349 707.000000 0.85
16.116079 40.910047 707.000000 0.85
16.138874 42.209363 708.000000 0.85
16.138874 43.450815 708.000000 0.85
16.184464 44.818517 710.000000 0.85
16.184464 46.063475 710.000000 0.85
16.184464 47.308434 710.000000 0.85
16.207259 48.621778 711.000000 0.85
16.207259 49.868490 711.000000 0.85
16.275644 51.330878 714.000000 0.85
16.321234 52.730142 716.000000 0.85
16.321234 53.985622 716.000000 0.85
17.601262 6.286165 717.000000 0.85
17.601262 7.543398 717.000000 0.85
17.601262 8.800631 717.000000 0.85
17.601262 10.057864 717.000000 0.85
17.601262 11.315097 717.000000 0.85
17.576714 12.554796 716.000000 0.85
17.576714 13.810275 716.000000 0.85
17.527617 15.023672 714.000000 0.85
17.503069 16.252849 713.000000 0.85
17.453972 17.453972 711.000000 0.85
17.453972 18.700684 711.000000 0.85
17.429423 19.919341 710.000000 0.85
17.429423 21.164299 710.000000 0.85
17.380326 22.346134 708.000000 0.85
17.331229 23.520954 706.000000 0.85
17.331229 24.758899 706.000000 0.85
17.331229 25.996844 706.000000 0.85
17.355778 27.273365 707.000000 0.85
17.331229 28.472734 706.000000 0.85
17.331229 29.710679 706.000000 0.85
17.331229 30.948624 706.000000 0.85
17.331229 32.186568 706.000000 0.85
17.331229 33.424513 706.000000 0.85
17.331229 34.662458 706.000000 0.85
17.331229 35.900403 706.000000 0.85
17.331229 37.138348 706.000000 0.85
17.355778 38.430651 707.000000 0.85
17.355778 39.670349 707.000000 0.85
17.355778 40.910047 707.000000 0.85
17.380326 42.209363 708.000000 0.85
17.380326 43.450815 708.000000 0.85
17.429423 44.818517 710.000000 0.85
17.429423 46.063475 710.000000 0.85
17.453972 47.375066 711.000000 0.85
17.453972 48.621778 711.000000 0.85
17.503069 50.008767 713.000000 0.85
17.527617 51.330878 714.000000 0.85
17.576714 52.730142 716.000000 0.85
17.576714 53.985622 716.000000 0.85
30.326144 10.108715 1153.000000 0.85
18.858496 7.543398 717.000000 0.85
18.911099 8.825180 719.000000 0.85
18.858496 10.057864 717.000000 0.85
18.832194 11.299316 716.000000 0.85
18.832194 12.554796 716.000000 0.85
18.832194 13.810275 716.000000 0.85
18.779590 15.023672 714.000000 0.85
18.779590 16.275644 714.000000 0.85
18.779590 17.527617 714.000000 0.85
18.700684 18.700684 711.000000 0.85
18.700684 19.947396 711.000000 0.85
18.700684 21.194108 711.000000 0.85
18.674382 22.409258 710.000000 0.85
18.674382 23.654217 710.000000 0.85
18.621778 24.829037 708.000000 0.85
18.621778 26.070489 708.000000 0.85
18.621778 27.311941 708.000000 0.85
18.595476 28.513063 707.000000 0.85
18.595476 29.752762 707.000000 0.85
18.595476 30.992460 707.000000 0.85
18.595476 32.232159 707.000000 0.85
18.595476 33.471857 707.000000 0.85
18.595476 34.711555 707.000000 0.85
18.595476 35.951254 707.000000 0.85
18.595476 37.190952 707.000000 0.85
18.621778 38.485008 708.000000 0.85
18.621778 39.726460 708.000000 0.85
18.621778 40.967912 708.000000 0.85
18.674382 42.328599 710.000000 0.85
18.674382 43.573558 710.000000 0.85
18.674382 44.818517 710.000000 0.85
18.674382 46.063475 710.000000 0.85
18.700684 47.375066 711.000000 0.85
18.753288 48.758548 713.000000 0.85
18.753288 50.008767 713.000000 0.85
18.779590 51.330878 714.000000 0.85
18.832194 52.730142 716.000000 0.85
32.347887 10.108715 1153.000000 0.85
20.171839 7.564440 719.000000 0.85
20.171839 8.825180 719.000000 0.85
20.115729 10.057864 717.000000 0.85
20.087673 11.299316 716.000000 0.85
20.087673 12.554796 716.000000 0.85
20.087673 13.810275 716.000000 0.85
20.031562 15.023672 714.000000 0.85
20.031562 16.275644 714.000000 0.85
20.031562 17.527617 714.000000 0.85
20.003507 18.753288 713.000000 0.85
19.947396 19.947396 711.000000 0.85
19.947396 21.194108 711.000000 0.85
19.947396 22.440821 711.000000 0.85
19.919341 23.654217 710.000000 0.85
19.863230 24.829037 708.000000 0.85
19.863230 26.070489 708.000000 0.85
19.863230 27.311941 708.000000 0.85
19.863230 28.553393 708.000000 0.85
19.863230 29.794845 708.000000 0.85
19.863230 31.036297 708.000000 0.85
19.835174 32.232159 707.000000 0.85
19.835174 33.471857 707.000000 0.85
19.835174 34.711555 707.000000 0.85
19.835174 35.951254 707.000000 0.85
19.835174 37.190952 707.000000 0.85
19.863230 38.485008 708.000000 0.85
19.863230 39.726460 708.000000 0.85
19.863230 40.967912 708.000000 0.85
19.919341 42.328599 710.000000 0.85
19.919341 43.573558 710.000000 0.85
19.919341 44.818517 710.000000 0.85
19.947396 46.128353 711.000000 0.85
20.003507 47.508329 713.000000 0.85
20.003507 48.758548 713.000000 0.85
20.031562 50.078906 714.000000 0.85
20.087673 51.474662 716.000000 0.85
21.432579 7.564440 719.000000 0.85
21.432579 8.825180 719.000000 0.85
21.432579 10.085920 719.000000 0.85
21.343153 11.299316 716.000000 0.85
21.343153 12.554796 716.000000 0.85
21.343153 13.810275 716.000000 0.85
21.343153 15.065755 716.000000 0.85
21.343153 16.321234 716.000000 0.85
21.343153 17.576714 716.000000 0.85
21.283535 18.779590 714.000000 0.85
21.283535 20.031562 714.000000 0.85
21.194108 21.194108 711.000000 0.85
21.194108 22.440821 711.000000 0.85
21.164299 23.654217 710.000000 0.85
21.164299 24.899176 710.000000 0.85
21.164299 26.144135 710.000000 0.85
21.164299 27.389093 710.000000 0.85
21.104682 28.553393 708.000000 0.85
21.104682 29.794845 708.000000 0.85
21.104682 31.036297 708.000000 0.85
21.104682 32.277749 708.000000 0.85
21.104682 33.519200 708.000000 0.85
21.164299 34.858846 710.000000 0.85
21.104682 36.002104 708.000000 0.85
21.104682 37.243556 708.000000 0.85
21.164299 38.593723 710.000000 0.85
21.164299 39.838681 710.000000 0.85
21.164299 41.083640 710.000000 0.85
21.164299 42.328599 710.000000 0.85
21.194108 43.634929 711.000000 0.85
21.194108 44.881641 711.000000 0.85
21.194108 46.128353 711.000000 0.85
21.253726 47.508329 713.000000 0.85
21.253726 48.758548 713.000000 0.85
21.283535 50.078906 714.000000 0.85
21.343153 51.474662 716.000000 0.85
22.693319 8.825180 719.000000 0.85
22.693319 10.085920 719.000000 0.85
22.598632 11.299316 716.000000 0.85
22.598632 12.554796 716.000000 0.85
22.598632 13.810275 716.000000 0.85
22.598632 15.065755 716.000000 0.85
22.598632 16.321234 716.000000 0.85
22.598632 17.576714 716.000000 0.85
22.598632 18.832194 716.000000 0.85
22.535508 20.031562 714.000000 0.85
22.503945 21.253726 713.000000 0.85
22.440821 22.440821 711.000000 0.85
22.440821 23.687533 711.000000 0.85
22.409258 24.899176 710.000000 0.85
22.409258 26.144135 710.000000 0.85
22.409258 27.389093 710.000000 0.85
22.409258 28.634052 710.000000 0.85
22.409258 29.879011 710.000000 0.85
22.409258 31.123970 710.000000 0.85
22.409258 32.368929 710.000000 0.85
22.409258 33.613887 710.000000 0.85
22.409258 34.858846 710.000000 0.85
22.409258 36.103805 710.000000 0.85
22.409258 37.348764 710.000000 0.85
22.409258 38.593723 710.000000 0.85
22.409258 39.838681 710.000000 0.85
22.440821 41.141504 711.000000 0.85
22.440821 42.388217 711.000000 0.85
22.440821 43.634929 711.000000 0.85
22.440821 44.881641 711.000000 0.85
22.503945 46.258110 713.000000 0.85
22.535508 47.574961 714.000000 0.85
22.535508 48.826933 714.000000 0.85
22.535508 50.078906 714.000000 0.85
22.598632 51.474662 716.000000 0.85
23.854112 10.043837 716.000000 0.85
23.854112 11.299316 716.000000 0.85
23.787480 12.519726 714.000000 0.85
23.787480 13.771699 714.000000 0.85
23.787480 15.023672 714.000000 0.85
23.787480 16.275644 714.000000 0.85
23.787480 17.527617 714.000000 0.85
23.787480 18.779590 714.000000 0.85
23.787480 20.031562 714.000000 0.85
23.754164 21.253726 713.000000 0.85
23.687533 22.440821 711.000000 0.85
23.687533 23.687533 711.000000 0.85
23.654217 24.899176 710.000000 0.85
23.654217 26.144135 710.000000 0.85
23.654217 27.389093 710.000000 0.85
23.654217 28.634052 710.000000 0.85
23.654217 29.879011 710.000000 0.85
23.654217 31.123970 710.000000 0.85
23.654217 32.368929 710.000000 0.85
23.654217 33.613887 710.000000 0.85
23.687533 34.907943 711.000000 0.85
23.654217 36.103805 710.000000 0.85
23.654217 37.348764 710.000000 0.85
23.687533 38.648080 711.000000 0.85
23.687533 39.894792 711.000000 0.85
23.687533 41.141504 711.000000 0.85
23.754164 42.507452 713.000000 0.85
23.754164 43.757671 713.000000 0.85
23.787480 45.071015 714.000000 0.85
23.787480 46.322988 714.000000 0.85
23.854112 47.708224 716.000000 0.85
23.854112 48.963703 716.000000 0.85
23.887428 50.289321 717.000000 0.85
23.854112 51.474662 716.000000 0.85
25.109591 11.299316 716.000000 0.85
25.039453 12.519726 714.000000 0.85
25.039453 13.771699 714.000000 0.85
25.039453 15.023672 714.000000 0.85
25.004384 16.252849 713.000000 0.85
25.004384 17.503069 713.000000 0.85
25.039453 18.779590 714.000000 0.85
25.039453 20.031562 714.000000 0.85
25.004384 21.253726 713.000000 0.85
25.004384 22.503945 713.000000 0.85
24.934245 23.687533 711.000000 0.85
24.934245 24.934245 711.000000 0.85
24.899176 26.144135 710.000000 0.85
24.899176 27.389093 710.000000 0.85
24.899176 28.634052 710.000000 0.85
24.899176 29.879011 710.000000 0.85
24.934245 31.167806 711.000000 0.85
24.934245 32.414519 711.000000 0.85
24.934245 33.661231 711.000000 0.85
24.934245 34.907943 711.000000 0.85
24.934245 36.154655 711.000000 0.85
24.934245 37.401368 711.000000 0.85
24.934245 38.648080 711.000000 0.85
25.004384 40.007014 713.000000 0.85
25.004384 41.257233 713.000000 0.85
25.004384 42.507452 713.000000 0.85
25.039453 43.819043 714.000000 0.85
25.039453 45.071015 714.000000 0.85
25.109591 46.452744 716.000000 0.85
25.144661 47.774855 717.000000 0.85
25.144661 49.032088 717.000000 0.85
25.214799 50.429598 719.000000 0.85
26.254603 16.252849 713.000000 0.85
26.254603 17.503069 713.000000 0.85
26.254603 18.753288 713.000000 0.85
26.365071 20.087673 716.000000 0.85
26.365071 21.343153 716.000000 0.85
26.254603 22.503945 713.000000 0.85
26.254603 23.754164 713.000000 0.85
26.180957 24.934245 711.000000 0.85
26.180957 26.180957 711.000000 0.85
26.180957 27.427670 711.000000 0.85
26.180957 28.674382 711.000000 0.85
26.180957 29.921094 711.000000 0.85
26.180957 31.167806 711.000000 0.85
26.180957 32.414519 711.000000 0.85
26.254603 33.755918 713.000000 0.85
26.254603 35.006137 713.000000 0.85
26.254603 36.256356 713.000000 0.85
26.254603 37.506575 713.000000 0.85
26.254603 38.756795 713.000000 0.85
26.254603 40.007014 713.000000 0.85
26.291426 41.315097 714.000000 0.85
26.291426 42.567070 714.000000 0.85
26.365071 43.941785 716.000000 0.85
26.401894 45.260389 717.000000 0.85
26.401894 46.517622 717.000000 0.85
26.475539 47.908119 719.000000 0.85
26.475539 49.168858 719.000000 0.85
26.512362 50.499737 720.000000 0.85
27.504822 15.002630 713.000000 0.85
27.504822 17.503069 713.000000 0.85
27.504822 18.753288 713.000000 0.85
27.620551 20.087673 716.000000 0.85
27.543398 21.283535 714.000000 0.85
27.504822 22.503945 713.000000 0.85
27.427670 23.687533 711.000000 0.85
27.427670 24.934245 711.000000 0.85
27.504822 26.254603 713.000000 0.85
27.504822 27.504822 713.000000 0.85
27.504822 28.755041 713.000000 0.85
27.504822 30.005260 713.000000 0.85
27.504822 31.255480 713.000000 0.85
27.504822 32.505699 713.000000 0.85
27.504822 33.755918 713.000000 0.85
27.504822 35.006137 713.000000 0.85
27.543398 36.307207 714.000000 0.85
27.543398 37.559179 714.000000 0.85
27.543398 38.811152 714.000000 0.85
27.543398 40.063125 714.000000 0.85
27.543398 41.315097 714.000000 0.85
27.620551 42.686305 716.000000 0.85
27.659127 44.003156 717.000000 0.85
27.659127 45.260389 717.000000 0.85
27.736279 46.647379 719.000000 0.85
27.774855 47.974750 720.000000 0.85
27.774855 49.237244 720.000000 0.85
28.755041 16.252849 713.000000 0.85
28.755041 17.503069 713.000000 0.85
28.755041 18.753288 713.000000 0.85
28.876030 20.087673 716.000000 0.85
28.795371 21.283535 714.000000 0.85
28.755041 22.503945 713.000000 0.85
28.674382 23.687533 711.000000 0.85
28.674382 24.934245 711.000000 0.85
28.755041 26.254603 713.000000 0.85
28.755041 27.504822 713.000000 0.85
28.755041 28.755041 713.000000 0.85
28.755041 30.005260 713.000000 0.85
28.755041 31.255480 713.000000 0.85
28.755041 32.505699 713.000000 0.85
28.795371 33.803261 714.000000 0.85
28.795371 35.055234 714.000000 0.85
28.795371 36.307207 714.000000 0.85
28.876030 37.664387 716.000000 0.85
28.876030 38.919867 716.000000 0.85
28.916360 40.231457 717.000000 0.85
28.916360 41.488690 717.000000 0.85
28.916360 42.745923 717.000000 0.85
28.997019 44.125899 719.000000 0.85
28.997019 45.386639 719.000000 0.85
29.037349 46.712257 720.000000 0.85
29.037349 47.974750 720.000000 0.85
29.118008 49.374014 722.000000 0.85
30.131510 18.832194 716.000000 0.85
30.131510 20.087673 716.000000 0.85
30.131510 21.343153 716.000000 0.85
30.005260 22.503945 713.000000 0.85
29.921094 23.687533 711.000000 0.85
29.921094 24.934245 711.000000 0.85
29.921094 26.180957 711.000000 0.85
30.047344 27.543398 714.000000 0.85
30.047344 28.795371 714.000000 0.85
30.005260 30.005260 713.000000 0.85
30.005260 31.255480 713.000000 0.85
30.047344 32.551289 714.000000 0.85
30.131510 33.897948 716.000000 0.85
30.131510 35.153428 716.000000 0.85
30.131510 36.408908 716.000000 0.85
30.173593 37.716991 717.000000 0.85
30.173593 38.974224 717.000000 0.85
30.173593 40.231457 717.000000 0.85
30.257759 41.604419 719.000000 0.85
30.299842 42.924776 720.000000 0.85
30.299842 44.187270 720.000000 0.85
30.384008 45.576013 722.000000 0.85
30.384008 46.842013 722.000000 0.85
30.426092 48.174645 723.000000 0.85
31.386989 21.343153 716.000000 0.85
31.255480 22.503945 713.000000 0.85
31.167806 23.687533 711.000000 0.85
31.123970 24.899176 710.000000 0.85
31.123970 26.144135 710.000000 0.85
31.299316 27.543398 714.000000 0.85
31.299316 28.795371 714.000000 0.85
31.386989 30.131510 716.000000 0.85
31.562336 31.562336 720.000000 0.85
31.430826 32.688059 717.000000 0.85
31.430826 33.945292 717.000000 0.85
31.430826 35.202525 717.000000 0.85
31.430826 36.459758 717.000000 0.85
31.430826 37.716991 717.000000 0.85
31.430826 38.974224 717.000000 0.85
31.430826 40.231457 717.000000 0.85
31.518499 41.604419 719.000000 0.85
31.562336 42.924776 720.000000 0.85
31.650009 44.310012 722.000000 0.85
31.650009 45.576013 722.000000 0.85
31.693845 46.906891 723.000000 0.85
31.693845 48.174645 723.000000 0.85
38.158864 26.417675 837.000000 0.85
32.414519 23.687533 711.000000 0.85
32.368929 24.899176 710.000000 0.85
32.368929 26.144135 710.000000 0.85
32.961599 27.890584 723.000000 0.85
32.961599 29.158338 723.000000 0.85
32.961599 30.426092 723.000000 0.85
32.961599 31.693845 723.000000 0.85
32.916009 32.916009 722.000000 0.85
32.916009 34.182009 722.000000 0.85
32.779239 35.300719 719.000000 0.85
32.779239 36.561459 719.000000 0.85
32.779239 37.822199 719.000000 0.85
32.824829 39.137296 720.000000 0.85
32.916009 40.512011 722.000000 0.85
32.916009 41.778012 722.000000 0.85
32.916009 43.044012 722.000000 0.85
32.961599 44.371383 723.000000 0.85
32.961599 45.639137 723.000000 0.85
33.052779 47.036647 725.000000 0.85
39.626512 27.885324 837.000000 0.85
33.613887 24.899176 710.000000 0.85
33.613887 26.144135 710.000000 0.85
34.229353 27.890584 723.000000 0.85
34.418727 29.319656 727.000000 0.85
34.324040 30.510258 725.000000 0.85
34.324040 31.781518 725.000000 0.85
34.324040 33.052779 725.000000 0.85
34.324040 34.324040 725.000000 0.85
34.229353 35.497107 723.000000 0.85
34.229353 36.764861 723.000000 0.85
34.229353 38.032614 723.000000 0.85
34.229353 39.300368 723.000000 0.85
34.229353 40.568122 723.000000 0.85
34.229353 41.835876 723.000000 0.85
34.229353 43.103630 723.000000 0.85
34.229353 44.371383 723.000000 0.85
34.324040 45.765387 725.000000 0.85
40.406803 28.862002 823.000000 0.85
40.308610 30.231457 821.000000 0.85
40.308610 31.671050 821.000000 0.85
35.742592 29.359986 728.000000 0.85
35.742592 30.636507 728.000000 0.85
35.693495 31.869192 727.000000 0.85
35.693495 33.143959 727.000000 0.85
35.693495 34.418727 727.000000 0.85
35.693495 35.693495 727.000000 0.85
35.693495 36.968262 727.000000 0.85
35.742592 38.295634 728.000000 0.85
35.742592 39.572155 728.000000 0.85
35.742592 40.848676 728.000000 0.85
35.693495 42.067333 727.000000 0.85
35.693495 43.342101 727.000000 0.85
35.693495 44.616868 727.000000 0.85
41.748203 30.231457 821.000000 0.85
37.019113 28.083465 728.000000 0.85
37.019113 29.359986 728.000000 0.85
37.019113 30.636507 728.000000 0.85
36.968262 31.869192 727.000000 0.85
36.968262 33.143959 727.000000 0.85
36.968262 34.418727 727.000000 0.85
36.968262 35.693495 727.000000 0.85
37.019113 37.019113 728.000000 0.85
37.019113 38.295634 728.000000 0.85
37.019113 39.572155 728.000000 0.85
37.019113 40.848676 728.000000 0.85
37.019113 42.125197 728.000000 0.85
37.019113 43.401718 728.000000 0.85
43.187796 30.231457 821.000000 0.85
38.295634 28.083465 728.000000 0.85
38.295634 29.359986 728.000000 0.85
38.295634 30.636507 728.000000 0.85
38.243030 31.869192 727.000000 0.85
38.243030 33.143959 727.000000 0.85
38.243030 34.418727 727.000000 0.85
38.243030 35.693495 727.000000 0.85
38.295634 37.019113 728.000000 0.85
38.295634 38.295634 728.000000 0.85
38.295634 39.572155 728.000000 0.85
38.295634 40.848676 728.000000 0.85
38.295634 42.125197 728.000000 0.85
44.627389 30.231457 821.000000 0.85
39.572155 28.083465 728.000000 0.85
39.572155 29.359986 728.000000 0.85
39.572155 30.636507 728.000000 0.85
39.572155 31.913028 728.000000 0.85
39.572155 33.189549 728.000000 0.85
39.572155 34.466070 728.000000 0.85
39.572155 35.742592 728.000000 0.85
39.572155 37.019113 728.000000 0.85
39.572155 38.295634 728.000000 0.85
