ply
format ascii 1.0
comment
element vertex 1293
property float32 x
property float32 y
property float32 z
property float intensity
element face 0
property list uchar int vertex_indices
end_header
-17.331229 39.614238 706.000000 0.85
-17.331229 40.852183 706.000000 0.85
-17.331229 42.090128 706.000000 0.85
-17.355778 43.389444 707.000000 0.85
-17.355778 44.629143 707.000000 0.85
-17.380326 45.933719 708.000000 0.85
-17.380326 47.175171 708.000000 0.85
-17.429423 48.553393 710.000000 0.85
-17.453972 49.868490 711.000000 0.85
-17.453972 51.115203 711.000000 0.85
-17.453972 52.361915 711.000000 0.85
-17.503069 53.759425 713.000000 0.85
-17.527617 55.086796 714.000000 0.85
-17.527617 56.338769 714.000000 0.85
-17.527617 57.590742 714.000000 0.85
-17.527617 58.842714 714.000000 0.85
-17.601262 60.347186 717.000000 0.85
-26.191478 12.088375 1149.000000 0.85
-16.458005 8.862002 722.000000 0.85
-16.389619 10.085920 719.000000 0.85
-16.344029 11.315097 717.000000 0.85
-16.344029 12.572330 717.000000 0.85
-16.344029 13.829563 717.000000 0.85
-16.321234 15.065755 716.000000 0.85
-16.252849 16.252849 713.000000 0.85
-16.252849 17.503069 713.000000 0.85
-16.207259 18.700684 711.000000 0.85
-16.207259 19.947396 711.000000 0.85
-16.184464 21.164299 710.000000 0.85
-16.184464 22.409258 710.000000 0.85
-16.184464 23.654217 710.000000 0.85
-16.138874 24.829037 708.000000 0.85
-16.138874 26.070489 708.000000 0.85
-16.138874 27.311941 708.000000 0.85
-16.116079 28.513063 707.000000 0.85
-16.116079 29.752762 707.000000 0.85
-16.116079 30.992460 707.000000 0.85
-16.116079 32.232159 707.000000 0.85
-16.116079 33.471857 707.000000 0.85
-16.093284 34.662458 706.000000 0.85
-16.093284 35.900403 706.000000 0.85
-16.093284 37.138348 706.000000 0.85
-16.093284 38.376293 706.000000 0.85
-16.093284 39.614238 706.000000 0.85
-16.093284 40.852183 706.000000 0.85
-16.093284 42.090128 706.000000 0.85
-16.116079 43.389444 707.000000 0.85
-16.116079 44.629143 707.000000 0.85
-16.116079 45.868841 707.000000 0.85
-16.138874 47.175171 708.000000 0.85
-16.184464 48.553393 710.000000 0.85
-16.207259 49.868490 711.000000 0.85
-16.207259 51.115203 711.000000 0.85
-16.207259 52.361915 711.000000 0.85
-16.252849 53.759425 713.000000 0.85
-16.275644 55.086796 714.000000 0.85
-16.275644 56.338769 714.000000 0.85
-16.275644 57.590742 714.000000 0.85
-16.321234 59.007540 716.000000 0.85
-16.344029 60.347186 717.000000 0.85
-24.176749 12.088375 1149.000000 0.85
-15.192004 8.862002 722.000000 0.85
-15.128880 10.085920 719.000000 0.85
-15.086796 11.315097 717.000000 0.85
-15.086796 12.572330 717.000000 0.85
-15.065755 13.810275 716.000000 0.85
-15.065755 15.065755 716.000000 0.85
-15.023672 16.275644 714.000000 0.85
-15.002630 17.503069 713.000000 0.85
-14.960547 18.700684 711.000000 0.85
-14.960547 19.947396 711.000000 0.85
-14.939506 21.164299 710.000000 0.85
-14.939506 22.409258 710.000000 0.85
-14.939506 23.654217 710.000000 0.85
-14.897422 24.829037 708.000000 0.85
-14.897422 26.070489 708.000000 0.85
-14.876381 27.273365 707.000000 0.85
-14.876381 28.513063 707.000000 0.85
-14.855339 29.710679 706.000000 0.85
-14.855339 30.948624 706.000000 0.85
-14.855339 32.186568 706.000000 0.85
-14.855339 33.424513 706.000000 0.85
-14.855339 34.662458 706.000000 0.85
-14.855339 35.900403 706.000000 0.85
-14.855339 37.138348 706.000000 0.85
-14.855339 38.376293 706.000000 0.85
-14.855339 39.614238 706.000000 0.85
-14.855339 40.852183 706.000000 0.85
-14.855339 42.090128 706.000000 0.85
-14.876381 43.389444 707.000000 0.85
-14.876381 44.629143 707.000000 0.85
-14.876381 45.868841 707.000000 0.85
-14.897422 47.175171 708.000000 0.85
-14.939506 48.553393 710.000000 0.85
-14.960547 49.868490 711.000000 0.85
-14.960547 51.115203 711.000000 0.85
-14.960547 52.361915 711.000000 0.85
-15.002630 53.759425 713.000000 0.85
-15.023672 55.086796 714.000000 0.85
-15.065755 56.496581 716.000000 0.85
-15.065755 57.752060 716.000000 0.85
-15.065755 59.007540 716.000000 0.85
-15.086796 60.347186 717.000000 0.85
-22.162020 12.088375 1149.000000 0.85
-13.887428 8.837454 720.000000 0.85
-13.887428 10.099947 720.000000 0.85
-13.868140 11.346660 719.000000 0.85
-13.829563 12.572330 717.000000 0.85
-13.810275 13.810275 716.000000 0.85
-13.810275 15.065755 716.000000 0.85
-13.771699 16.275644 714.000000 0.85
-13.752411 17.503069 713.000000 0.85
-13.713835 18.700684 711.000000 0.85
-13.713835 19.947396 711.000000 0.85
-13.694547 21.164299 710.000000 0.85
-13.694547 22.409258 710.000000 0.85
-13.694547 23.654217 710.000000 0.85
-13.655971 24.829037 708.000000 0.85
-13.655971 26.070489 708.000000 0.85
-13.636682 27.273365 707.000000 0.85
-13.617394 28.472734 706.000000 0.85
-13.617394 29.710679 706.000000 0.85
-13.617394 30.948624 706.000000 0.85
-13.617394 32.186568 706.000000 0.85
-13.617394 33.424513 706.000000 0.85
-13.617394 34.662458 706.000000 0.85
-13.617394 35.900403 706.000000 0.85
-13.617394 37.138348 706.000000 0.85
-13.617394 38.376293 706.000000 0.85
-13.617394 39.614238 706.000000 0.85
-13.617394 40.852183 706.000000 0.85
-13.617394 42.090128 706.000000 0.85
-13.636682 43.389444 707.000000 0.85
-13.636682 44.629143 707.000000 0.85
-13.636682 45.868841 707.000000 0.85
-13.655971 47.175171 708.000000 0.85
-13.694547 48.553393 710.000000 0.85
-13.694547 49.798352 710.000000 0.85
-13.713835 51.115203 711.000000 0.85
-13.713835 52.361915 711.000000 0.85
-13.713835 53.608627 711.000000 0.85
-13.752411 55.009644 713.000000 0.85
-13.771699 56.338769 714.000000 0.85
-13.771699 57.590742 714.000000 0.85
-13.771699 58.842714 714.000000 0.85
-13.810275 60.263019 716.000000 0.85
-20.147291 12.088375 1149.000000 0.85
-12.624934 8.837454 720.000000 0.85
-12.624934 10.099947 720.000000 0.85
-12.607400 11.346660 719.000000 0.85
-12.572330 12.572330 717.000000 0.85
-12.554796 13.810275 716.000000 0.85
-12.519726 15.023672 714.000000 0.85
-12.502192 16.252849 713.000000 0.85
-12.502192 17.503069 713.000000 0.85
-12.467123 18.700684 711.000000 0.85
-12.467123 19.947396 711.000000 0.85
-12.449588 21.164299 710.000000 0.85
-12.449588 22.409258 710.000000 0.85
-12.449588 23.654217 710.000000 0.85
-12.414519 24.829037 708.000000 0.85
-12.414519 26.070489 708.000000 0.85
-12.396984 27.273365 707.000000 0.85
-12.379449 28.472734 706.000000 0.85
-12.379449 29.710679 706.000000 0.85
-12.379449 30.948624 706.000000 0.85
-12.379449 32.186568 706.000000 0.85
-12.344380 33.329826 704.000000 0.85
-12.344380 34.564264 704.000000 0.85
-12.344380 35.798702 704.000000 0.85
-12.344380 37.033140 704.000000 0.85
-12.344380 38.267578 704.000000 0.85
-12.379449 39.614238 706.000000 0.85
-12.379449 40.852183 706.000000 0.85
-12.379449 42.090128 706.000000 0.85
-12.396984 43.389444 707.000000 0.85
-12.396984 44.629143 707.000000 0.85
-12.396984 45.868841 707.000000 0.85
-12.414519 47.175171 708.000000 0.85
-12.449588 48.553393 710.000000 0.85
-12.449588 49.798352 710.000000 0.85
-12.467123 51.115203 711.000000 0.85
-12.467123 52.361915 711.000000 0.85
-12.467123 53.608627 711.000000 0.85
-12.502192 55.009644 713.000000 0.85
-12.519726 56.338769 714.000000 0.85
-12.519726 57.590742 714.000000 0.85
-12.519726 58.842714 714.000000 0.85
-12.554796 60.263019 716.000000 0.85
-18.195686 12.130458 1153.000000 0.85
-11.362441 8.837454 720.000000 0.85
-11.346660 10.085920 719.000000 0.85
-11.346660 11.346660 719.000000 0.85
-11.315097 12.572330 717.000000 0.85
-11.299316 13.810275 716.000000 0.85
-11.267754 15.023672 714.000000 0.85
-11.251973 16.252849 713.000000 0.85
-11.251973 17.503069 713.000000 0.85
-11.220410 18.700684 711.000000 0.85
-11.220410 19.947396 711.000000 0.85
-11.204629 21.164299 710.000000 0.85
-11.204629 22.409258 710.000000 0.85
-11.173067 23.587585 708.000000 0.85
-11.173067 24.829037 708.000000 0.85
-11.173067 26.070489 708.000000 0.85
-11.173067 27.311941 708.000000 0.85
-11.157286 28.513063 707.000000 0.85
-11.141504 29.710679 706.000000 0.85
-11.141504 30.948624 706.000000 0.85
-11.141504 32.186568 706.000000 0.85
-11.109942 33.329826 704.000000 0.85
-11.109942 34.564264 704.000000 0.85
-11.109942 35.798702 704.000000 0.85
-11.109942 37.033140 704.000000 0.85
-11.109942 38.267578 704.000000 0.85
-11.141504 39.614238 706.000000 0.85
-11.141504 40.852183 706.000000 0.85
-11.141504 42.090128 706.000000 0.85
-11.157286 43.389444 707.000000 0.85
-11.157286 44.629143 707.000000 0.85
-11.157286 45.868841 707.000000 0.85
-11.173067 47.175171 708.000000 0.85
-11.204629 48.553393 710.000000 0.85
-11.204629 49.798352 710.000000 0.85
-11.220410 51.115203 711.000000 0.85
-11.220410 52.361915 711.000000 0.85
-11.220410 53.608627 711.000000 0.85
-11.251973 55.009644 713.000000 0.85
-11.267754 56.338769 714.000000 0.85
-11.267754 57.590742 714.000000 0.85
-11.299316 59.007540 716.000000 0.85
-11.315097 60.347186 717.000000 0.85
-16.173944 12.130458 1153.000000 0.85
-10.099947 8.837454 720.000000 0.85
-10.085920 10.085920 719.000000 0.85
-10.085920 11.346660 719.000000 0.85
-10.057864 12.572330 717.000000 0.85
-10.043837 13.810275 716.000000 0.85
-10.043837 15.065755 716.000000 0.85
-10.015781 16.275644 714.000000 0.85
-10.001753 17.503069 713.000000 0.85
-9.973698 18.700684 711.000000 0.85
-9.973698 19.947396 711.000000 0.85
-9.959670 21.164299 710.000000 0.85
-9.959670 22.409258 710.000000 0.85
-9.931615 23.587585 708.000000 0.85
-9.931615 24.829037 708.000000 0.85
-9.931615 26.070489 708.000000 0.85
-9.931615 27.311941 708.000000 0.85
-9.917587 28.513063 707.000000 0.85
-9.903560 29.710679 706.000000 0.85
-9.903560 30.948624 706.000000 0.85
-9.903560 32.186568 706.000000 0.85
-9.903560 33.424513 706.000000 0.85
-9.875504 34.564264 704.000000 0.85
-9.875504 35.798702 704.000000 0.85
-9.875504 37.033140 704.000000 0.85
-9.875504 38.267578 704.000000 0.85
-9.903560 39.614238 706.000000 0.85
-9.903560 40.852183 706.000000 0.85
-9.903560 42.090128 706.000000 0.85
-9.917587 43.389444 707.000000 0.85
-9.917587 44.629143 707.000000 0.85
-9.931615 45.933719 708.000000 0.85
-9.931615 47.175171 708.000000 0.85
-9.959670 48.553393 710.000000 0.85
-9.959670 49.798352 710.000000 0.85
-9.973698 51.115203 711.000000 0.85
-9.973698 52.361915 711.000000 0.85
-9.973698 53.608627 711.000000 0.85
-10.001753 55.009644 713.000000 0.85
-10.015781 56.338769 714.000000 0.85
-10.015781 57.590742 714.000000 0.85
-10.043837 59.007540 716.000000 0.85
-10.057864 60.347186 717.000000 0.85
-14.152201 12.130458 1153.000000 0.85
-8.837454 8.837454 720.000000 0.85
-8.825180 10.085920 719.000000 0.85
-8.800631 11.315097 717.000000 0.85
-8.800631 12.572330 717.000000 0.85
-8.788357 13.810275 716.000000 0.85
-8.788357 15.065755 716.000000 0.85
-8.763809 16.275644 714.000000 0.85
-8.751534 17.503069 713.000000 0.85
-8.726986 18.700684 711.000000 0.85
-8.726986 19.947396 711.000000 0.85
-8.714712 21.164299 710.000000 0.85
-8.714712 22.409258 710.000000 0.85
-8.714712 23.654217 710.000000 0.85
-8.690163 24.829037 708.000000 0.85
-8.690163 26.070489 708.000000 0.85
-8.690163 27.311941 708.000000 0.85
-8.677889 28.513063 707.000000 0.85
-8.665615 29.710679 706.000000 0.85
-8.665615 30.948624 706.000000 0.85
-8.665615 32.186568 706.000000 0.85
-8.641066 33.329826 704.000000 0.85
-8.641066 34.564264 704.000000 0.85
-8.641066 35.798702 704.000000 0.85
-8.641066 37.033140 704.000000 0.85
-8.665615 38.376293 706.000000 0.85
-8.665615 39.614238 706.000000 0.85
-8.665615 40.852183 706.000000 0.85
-8.665615 42.090128 706.000000 0.85
-8.677889 43.389444 707.000000 0.85
-8.677889 44.629143 707.000000 0.85
-8.690163 45.933719 708.000000 0.85
-8.690163 47.175171 708.000000 0.85
-8.714712 48.553393 710.000000 0.85
-8.714712 49.798352 710.000000 0.85
-8.726986 51.115203 711.000000 0.85
-8.726986 52.361915 711.000000 0.85
-8.726986 53.608627 711.000000 0.85
-8.751534 55.009644 713.000000 0.85
-8.763809 56.338769 714.000000 0.85
-8.788357 57.752060 716.000000 0.85
-8.800631 59.089953 717.000000 0.85
-8.800631 60.347186 717.000000 0.85
-12.130458 12.130458 1153.000000 0.85
-7.596002 8.862002 722.000000 0.85
-7.564440 10.085920 719.000000 0.85
-7.543398 11.315097 717.000000 0.85
-7.543398 12.572330 717.000000 0.85
-7.532877 13.810275 716.000000 0.85
-7.532877 15.065755 716.000000 0.85
-7.511836 16.275644 714.000000 0.85
-7.501315 17.503069 713.000000 0.85
-7.480274 18.700684 711.000000 0.85
-7.480274 19.947396 711.000000 0.85
-7.469753 21.164299 710.000000 0.85
-7.469753 22.409258 710.000000 0.85
-7.469753 23.654217 710.000000 0.85
-7.448711 24.829037 708.000000 0.85
-7.448711 26.070489 708.000000 0.85
-7.438190 27.273365 707.000000 0.85
-7.438190 28.513063 707.000000 0.85
-7.427670 29.710679 706.000000 0.85
-7.427670 30.948624 706.000000 0.85
-7.427670 32.186568 706.000000 0.85
-7.406628 33.329826 704.000000 0.85
-7.406628 34.564264 704.000000 0.85
-7.406628 35.798702 704.000000 0.85
-7.406628 37.033140 704.000000 0.85
-7.427670 38.376293 706.000000 0.85
-7.427670 39.614238 706.000000 0.85
-7.427670 40.852183 706.000000 0.85
-7.438190 42.149746 707.000000 0.85
-7.438190 43.389444 707.000000 0.85
-7.448711 44.692267 708.000000 0.85
-7.448711 45.933719 708.000000 0.85
-7.469753 47.308434 710.000000 0.85
-7.469753 48.553393 710.000000 0.85
-7.469753 49.798352 710.000000 0.85
-7.480274 51.115203 711.000000 0.85
-7.480274 52.361915 711.000000 0.85
-7.480274 53.608627 711.000000 0.85
-7.501315 55.009644 713.000000 0.85
-7.511836 56.338769 714.000000 0.85
-7.532877 57.752060 716.000000 0.85
-7.543398 59.089953 717.000000 0.85
-7.564440 60.515518 719.000000 0.85
-10.108715 12.130458 1153.000000 0.85
-6.303700 8.825180 719.000000 0.85
-6.303700 10.085920 719.000000 0.85
-6.303700 11.346660 719.000000 0.85
-6.286165 12.572330 717.000000 0.85
-6.277398 13.810275 716.000000 0.85
-6.277398 15.065755 716.000000 0.85
-6.259863 16.275644 714.000000 0.85
-6.251096 17.503069 713.000000 0.85
-6.233561 18.700684 711.000000 0.85
-6.233561 19.947396 711.000000 0.85
-6.224794 21.164299 710.000000 0.85
-6.224794 22.409258 710.000000 0.85
-6.224794 23.654217 710.000000 0.85
-6.207259 24.829037 708.000000 0.85
-6.207259 26.070489 708.000000 0.85
-6.198492 27.273365 707.000000 0.85
-6.198492 28.513063 707.000000 0.85
-6.189725 29.710679 706.000000 0.85
-6.189725 30.948624 706.000000 0.85
-6.189725 32.186568 706.000000 0.85
-6.189725 33.424513 706.000000 0.85
-6.172190 34.564264 704.000000 0.85
-6.172190 35.798702 704.000000 0.85
-6.172190 37.033140 704.000000 0.85
-6.189725 38.376293 706.000000 0.85
-6.189725 39.614238 706.000000 0.85
-6.189725 40.852183 706.000000 0.85
-6.198492 42.149746 707.000000 0.85
-6.198492 43.389444 707.000000 0.85
-6.207259 44.692267 708.000000 0.85
-6.207259 45.933719 708.000000 0.85
-6.224794 47.308434 710.000000 0.85
-6.233561 48.621778 711.000000 0.85
-6.233561 49.868490 711.000000 0.85
-6.233561 51.115203 711.000000 0.85
-6.251096 52.509206 713.000000 0.85
-6.251096 53.759425 713.000000 0.85
-6.259863 55.086796 714.000000 0.85
-6.277398 56.496581 716.000000 0.85
-6.286165 57.832720 717.000000 0.85
-6.286165 59.089953 717.000000 0.85
-6.303700 60.515518 719.000000 0.85
-8.086972 12.130458 1153.000000 0.85
-5.042960 8.825180 719.000000 0.85
-5.042960 10.085920 719.000000 0.85
-5.042960 11.346660 719.000000 0.85
-5.028932 12.572330 717.000000 0.85
-5.028932 13.829563 717.000000 0.85
-5.021918 15.065755 716.000000 0.85
-5.007891 16.275644 714.000000 0.85
-5.000877 17.503069 713.000000 0.85
-4.986849 18.700684 711.000000 0.85
-4.986849 19.947396 711.000000 0.85
-4.986849 21.194108 711.000000 0.85
-4.979835 22.409258 710.000000 0.85
-4.979835 23.654217 710.000000 0.85
-4.965807 24.829037 708.000000 0.85
-4.965807 26.070489 708.000000 0.85
-4.965807 27.311941 708.000000 0.85
-4.958794 28.513063 707.000000 0.85
-4.951780 29.710679 706.000000 0.85
-4.951780 30.948624 706.000000 0.85
-4.951780 32.186568 706.000000 0.85
-4.951780 33.424513 706.000000 0.85
-4.951780 34.662458 706.000000 0.85
-4.951780 35.900403 706.000000 0.85
-4.951780 37.138348 706.000000 0.85
-4.951780 38.376293 706.000000 0.85
-4.951780 39.614238 706.000000 0.85
-4.951780 40.852183 706.000000 0.85
-4.958794 42.149746 707.000000 0.85
-4.965807 43.450815 708.000000 0.85
-4.965807 44.692267 708.000000 0.85
-4.979835 46.063475 710.000000 0.85
-4.979835 47.308434 710.000000 0.85
-4.986849 48.621778 711.000000 0.85
-4.986849 49.868490 711.000000 0.85
-4.986849 51.115203 711.000000 0.85
-5.000877 52.509206 713.000000 0.85
-5.000877 53.759425 713.000000 0.85
-5.007891 55.086796 714.000000 0.85
-5.021918 56.496581 716.000000 0.85
-5.028932 57.832720 717.000000 0.85
-5.042960 59.254778 719.000000 0.85
-5.064001 60.768017 722.000000 0.85
-6.065229 12.130458 1153.000000 0.85
-3.787480 8.837454 720.000000 0.85
-3.787480 10.099947 720.000000 0.85
-3.782220 11.346660 719.000000 0.85
-3.782220 12.607400 719.000000 0.85
-3.771699 13.829563 717.000000 0.85
-3.766439 15.065755 716.000000 0.85
-3.755918 16.275644 714.000000 0.85
-3.750658 17.503069 713.000000 0.85
-3.740137 18.700684 711.000000 0.85
-3.740137 19.947396 711.000000 0.85
-3.740137 21.194108 711.000000 0.85
-3.734876 22.409258 710.000000 0.85
-3.734876 23.654217 710.000000 0.85
-3.734876 24.899176 710.000000 0.85
-3.734876 26.144135 710.000000 0.85
-3.734876 27.389093 710.000000 0.85
-3.724356 28.553393 708.000000 0.85
-3.719095 29.752762 707.000000 0.85
-3.719095 30.992460 707.000000 0.85
-3.713835 32.186568 706.000000 0.85
-3.713835 33.424513 706.000000 0.85
-3.713835 34.662458 706.000000 0.85
-3.713835 35.900403 706.000000 0.85
-3.713835 37.138348 706.000000 0.85
-3.713835 38.376293 706.000000 0.85
-3.713835 39.614238 706.000000 0.85
-3.719095 40.910047 707.000000 0.85
-3.719095 42.149746 707.000000 0.85
-3.724356 43.450815 708.000000 0.85
-3.734876 44.818517 710.000000 0.85
-3.734876 46.063475 710.000000 0.85
-3.734876 47.308434 710.000000 0.85
-3.740137 48.621778 711.000000 0.85
-3.740137 49.868490 711.000000 0.85
-3.740137 51.115203 711.000000 0.85
-3.750658 52.509206 713.000000 0.85
-3.755918 53.834824 714.000000 0.85
-3.766439 55.241101 716.000000 0.85
-3.771699 56.575487 717.000000 0.85
-3.782220 57.994038 719.000000 0.85
-3.787480 59.337191 720.000000 0.85
-3.798001 60.768017 722.000000 0.85
-4.043486 10.108715 1153.000000 0.85
-4.043486 12.130458 1153.000000 0.85
-2.524987 8.837454 720.000000 0.85
-2.524987 10.099947 720.000000 0.85
-2.521480 11.346660 719.000000 0.85
-2.521480 12.607400 719.000000 0.85
-2.514466 13.829563 717.000000 0.85
-2.510959 15.065755 716.000000 0.85
-2.503945 16.275644 714.000000 0.85
-2.503945 17.527617 714.000000 0.85
-2.500438 18.753288 713.000000 0.85
-2.493425 19.947396 711.000000 0.85
-2.493425 21.194108 711.000000 0.85
-2.493425 22.440821 711.000000 0.85
-2.489918 23.654217 710.000000 0.85
-2.489918 24.899176 710.000000 0.85
-2.489918 26.144135 710.000000 0.85
-2.489918 27.389093 710.000000 0.85
-2.482904 28.553393 708.000000 0.85
-2.479397 29.752762 707.000000 0.85
-2.479397 30.992460 707.000000 0.85
-2.475890 32.186568 706.000000 0.85
-2.475890 33.424513 706.000000 0.85
-2.475890 34.662458 706.000000 0.85
-2.475890 35.900403 706.000000 0.85
-2.475890 37.138348 706.000000 0.85
-2.475890 38.376293 706.000000 0.85
-2.479397 39.670349 707.000000 0.85
-2.479397 40.910047 707.000000 0.85
-2.482904 42.209363 708.000000 0.85
-2.489918 43.573558 710.000000 0.85
-2.489918 44.818517 710.000000 0.85
-2.489918 46.063475 710.000000 0.85
-2.493425 47.375066 711.000000 0.85
-2.493425 48.621778 711.000000 0.85
-2.493425 49.868490 711.000000 0.85
-2.500438 51.258986 713.000000 0.85
-2.500438 52.509206 713.000000 0.85
-2.503945 53.834824 714.000000 0.85
-2.510959 55.241101 716.000000 0.85
-2.514466 56.575487 717.000000 0.85
-2.514466 57.832720 717.000000 0.85
-2.521480 59.254778 719.000000 0.85
-2.521480 60.515518 719.000000 0.85
-2.021743 10.108715 1153.000000 0.85
-1.266000 7.596002 722.000000 0.85
-1.266000 8.862002 722.000000 0.85
-1.262493 10.099947 720.000000 0.85
-1.262493 11.362441 720.000000 0.85
-1.260740 12.607400 719.000000 0.85
-1.257233 13.829563 717.000000 0.85
-1.255480 15.065755 716.000000 0.85
-1.255480 16.321234 716.000000 0.85
-1.251973 17.527617 714.000000 0.85
-1.250219 18.753288 713.000000 0.85
-1.250219 20.003507 713.000000 0.85
-1.246712 21.194108 711.000000 0.85
-1.246712 22.440821 711.000000 0.85
-1.244959 23.654217 710.000000 0.85
-1.244959 24.899176 710.000000 0.85
-1.244959 26.144135 710.000000 0.85
-1.244959 27.389093 710.000000 0.85
-1.241452 28.553393 708.000000 0.85
-1.241452 29.794845 708.000000 0.85
-1.239698 30.992460 707.000000 0.85
-1.239698 32.232159 707.000000 0.85
-1.237945 33.424513 706.000000 0.85
-1.237945 34.662458 706.000000 0.85
-1.239698 35.951254 707.000000 0.85
-1.239698 37.190952 707.000000 0.85
-1.239698 38.430651 707.000000 0.85
-1.239698 39.670349 707.000000 0.85
-1.241452 40.967912 708.000000 0.85
-1.241452 42.209363 708.000000 0.85
-1.244959 43.573558 710.000000 0.85
-1.244959 44.818517 710.000000 0.85
-1.244959 46.063475 710.000000 0.85
-1.246712 47.375066 711.000000 0.85
-1.246712 48.621778 711.000000 0.85
-1.246712 49.868490 711.000000 0.85
-1.250219 51.258986 713.000000 0.85
-1.251973 52.582851 714.000000 0.85
-1.251973 53.834824 714.000000 0.85
-1.255480 55.241101 716.000000 0.85
-1.257233 56.575487 717.000000 0.85
-1.257233 57.832720 717.000000 0.85
-1.257233 59.089953 717.000000 0.85
0.000000 10.108715 1153.000000 0.85
0.000000 7.596002 722.000000 0.85
0.000000 8.862002 722.000000 0.85
0.000000 10.099947 720.000000 0.85
0.000000 11.362441 720.000000 0.85
0.000000 12.607400 719.000000 0.85
0.000000 13.829563 717.000000 0.85
0.000000 15.065755 716.000000 0.85
0.000000 16.321234 716.000000 0.85
0.000000 17.527617 714.000000 0.85
0.000000 18.753288 713.000000 0.85
0.000000 20.003507 713.000000 0.85
0.000000 21.194108 711.000000 0.85
0.000000 22.440821 711.000000 0.85
0.000000 23.687533 711.000000 0.85
0.000000 24.899176 710.000000 0.85
0.000000 26.144135 710.000000 0.85
0.000000 27.389093 710.000000 0.85
0.000000 28.553393 708.000000 0.85
0.000000 29.794845 708.000000 0.85
0.000000 31.036297 708.000000 0.85
0.000000 32.232159 707.000000 0.85
0.000000 33.471857 707.000000 0.85
0.000000 34.711555 707.000000 0.85
0.000000 35.951254 707.000000 0.85
0.000000 37.190952 707.000000 0.85
0.000000 38.485008 708.000000 0.85
0.000000 39.726460 708.000000 0.85
0.000000 40.967912 708.000000 0.85
0.000000 42.209363 708.000000 0.85
0.000000 43.573558 710.000000 0.85
0.000000 44.818517 710.000000 0.85
0.000000 46.063475 710.000000 0.85
0.000000 47.375066 711.000000 0.85
0.000000 48.621778 711.000000 0.85
0.000000 50.008767 713.000000 0.85
0.000000 51.258986 713.000000 0.85
0.000000 52.582851 714.000000 0.85
0.000000 53.985622 716.000000 0.85
0.000000 55.318254 717.000000 0.85
0.000000 56.575487 717.000000 0.85
0.000000 57.832720 717.000000 0.85
0.000000 59.089953 717.000000 0.85
2.021743 10.108715 1153.000000 0.85
1.267754 7.606523 723.000000 0.85
1.266000 8.862002 722.000000 0.85
1.266000 10.128003 722.000000 0.85
1.262493 11.362441 720.000000 0.85
1.260740 12.607400 719.000000 0.85
1.257233 13.829563 717.000000 0.85
1.255480 15.065755 716.000000 0.85
1.255480 16.321234 716.000000 0.85
1.251973 17.527617 714.000000 0.85
1.250219 18.753288 713.000000 0.85
1.250219 20.003507 713.000000 0.85
1.246712 21.194108 711.000000 0.85
1.246712 22.440821 711.000000 0.85
1.246712 23.687533 711.000000 0.85
1.244959 24.899176 710.000000 0.85
1.244959 26.144135 710.000000 0.85
1.244959 27.389093 710.000000 0.85
1.244959 28.634052 710.000000 0.85
1.241452 29.794845 708.000000 0.85
1.241452 31.036297 708.000000 0.85
1.241452 32.277749 708.000000 0.85
1.239698 33.471857 707.000000 0.85
1.239698 34.711555 707.000000 0.85
1.241452 36.002104 708.000000 0.85
1.241452 37.243556 708.000000 0.85
1.241452 38.485008 708.000000 0.85
1.241452 39.726460 708.000000 0.85
1.244959 41.083640 710.000000 0.85
1.244959 42.328599 710.000000 0.85
1.244959 43.573558 710.000000 0.85
1.244959 44.818517 710.000000 0.85
1.246712 46.128353 711.000000 0.85
1.246712 47.375066 711.000000 0.85
1.250219 48.758548 713.000000 0.85
1.251973 50.078906 714.000000 0.85
1.255480 51.474662 716.000000 0.85
1.255480 52.730142 716.000000 0.85
1.257233 54.061021 717.000000 0.85
1.257233 55.318254 717.000000 0.85
1.257233 56.575487 717.000000 0.85
1.257233 57.832720 717.000000 0.85
4.043486 10.108715 1153.000000 0.85
2.535508 7.606523 723.000000 0.85
2.532001 8.862002 722.000000 0.85
2.532001 10.128003 722.000000 0.85
2.524987 11.362441 720.000000 0.85
2.524987 12.624934 720.000000 0.85
2.521480 13.868140 719.000000 0.85
2.514466 15.086796 717.000000 0.85
2.510959 16.321234 716.000000 0.85
2.503945 17.527617 714.000000 0.85
2.503945 18.779590 714.000000 0.85
2.500438 20.003507 713.000000 0.85
2.493425 21.194108 711.000000 0.85
2.493425 22.440821 711.000000 0.85
2.493425 23.687533 711.000000 0.85
2.493425 24.934245 711.000000 0.85
2.489918 26.144135 710.000000 0.85
2.489918 27.389093 710.000000 0.85
2.489918 28.634052 710.000000 0.85
2.489918 29.879011 710.000000 0.85
2.489918 31.123970 710.000000 0.85
2.482904 32.277749 708.000000 0.85
2.482904 33.519200 708.000000 0.85
2.482904 34.760652 708.000000 0.85
2.489918 36.103805 710.000000 0.85
2.489918 37.348764 710.000000 0.85
2.489918 38.593723 710.000000 0.85
2.489918 39.838681 710.000000 0.85
2.489918 41.083640 710.000000 0.85
2.493425 42.388217 711.000000 0.85
2.493425 43.634929 711.000000 0.85
2.493425 44.881641 711.000000 0.85
2.500438 46.258110 713.000000 0.85
2.500438 47.508329 713.000000 0.85
2.503945 48.826933 714.000000 0.85
2.510959 50.219183 716.000000 0.85
2.510959 51.474662 716.000000 0.85
2.510959 52.730142 716.000000 0.85
2.510959 53.985622 716.000000 0.85
2.510959 55.241101 716.000000 0.85
2.510959 56.496581 716.000000 0.85
3.803261 7.606523 723.000000 0.85
3.798001 8.862002 722.000000 0.85
3.798001 10.128003 722.000000 0.85
3.787480 11.362441 720.000000 0.85
3.787480 12.624934 720.000000 0.85
3.782220 13.868140 719.000000 0.85
3.771699 15.086796 717.000000 0.85
3.766439 16.321234 716.000000 0.85
3.766439 17.576714 716.000000 0.85
3.755918 18.779590 714.000000 0.85
3.755918 20.031562 714.000000 0.85
3.750658 21.253726 713.000000 0.85
3.740137 22.440821 711.000000 0.85
3.740137 23.687533 711.000000 0.85
3.740137 24.934245 711.000000 0.85
3.734876 26.144135 710.000000 0.85
3.734876 27.389093 710.000000 0.85
3.734876 28.634052 710.000000 0.85
3.734876 29.879011 710.000000 0.85
3.734876 31.123970 710.000000 0.85
3.734876 32.368929 710.000000 0.85
3.734876 33.613887 710.000000 0.85
3.734876 34.858846 710.000000 0.85
3.734876 36.103805 710.000000 0.85
3.734876 37.348764 710.000000 0.85
3.734876 38.593723 710.000000 0.85
3.734876 39.838681 710.000000 0.85
3.740137 41.141504 711.000000 0.85
3.740137 42.388217 711.000000 0.85
3.740137 43.634929 711.000000 0.85
3.750658 45.007891 713.000000 0.85
3.750658 46.258110 713.000000 0.85
3.755918 47.574961 714.000000 0.85
3.766439 48.963703 716.000000 0.85
3.766439 50.219183 716.000000 0.85
3.766439 51.474662 716.000000 0.85
3.766439 52.730142 716.000000 0.85
3.766439 53.985622 716.000000 0.85
3.766439 55.241101 716.000000 0.85
3.755918 56.338769 714.000000 0.85
8.086972 12.130458 1153.000000 0.85
5.064001 8.862002 722.000000 0.85
5.064001 10.128003 722.000000 0.85
5.049974 11.362441 720.000000 0.85
5.049974 12.624934 720.000000 0.85
5.042960 13.868140 719.000000 0.85
5.028932 15.086796 717.000000 0.85
5.028932 16.344029 717.000000 0.85
5.021918 17.576714 716.000000 0.85
5.021918 18.832194 716.000000 0.85
5.007891 20.031562 714.000000 0.85
5.007891 21.283535 714.000000 0.85
5.000877 22.503945 713.000000 0.85
4.986849 23.687533 711.000000 0.85
4.986849 24.934245 711.000000 0.85
4.986849 26.180957 711.000000 0.85
4.986849 27.427670 711.000000 0.85
4.979835 28.634052 710.000000 0.85
4.979835 29.879011 710.000000 0.85
4.979835 31.123970 710.000000 0.85
4.979835 32.368929 710.000000 0.85
4.979835 33.613887 710.000000 0.85
4.979835 34.858846 710.000000 0.85
4.979835 36.103805 710.000000 0.85
4.979835 37.348764 710.000000 0.85
4.986849 38.648080 711.000000 0.85
4.986849 39.894792 711.000000 0.85
5.000877 41.257233 713.000000 0.85
5.000877 42.507452 713.000000 0.85
5.000877 43.757671 713.000000 0.85
5.007891 45.071015 714.000000 0.85
5.007891 46.322988 714.000000 0.85
5.021918 47.708224 716.000000 0.85
5.021918 48.963703 716.000000 0.85
5.021918 50.219183 716.000000 0.85
5.028932 51.546554 717.000000 0.85
5.021918 52.730142 716.000000 0.85
5.007891 53.834824 714.000000 0.85
5.007891 55.086796 714.000000 0.85
5.000877 56.259863 713.000000 0.85
10.143784 12.172541 1157.000000 0.85
6.330002 8.862002 722.000000 0.85
6.330002 10.128003 722.000000 0.85
6.312467 11.362441 720.000000 0.85
6.312467 12.624934 720.000000 0.85
6.303700 13.868140 719.000000 0.85
6.286165 15.086796 717.000000 0.85
6.286165 16.344029 717.000000 0.85
6.277398 17.576714 716.000000 0.85
6.277398 18.832194 716.000000 0.85
6.277398 20.087673 716.000000 0.85
6.259863 21.283535 714.000000 0.85
6.251096 22.503945 713.000000 0.85
6.251096 23.754164 713.000000 0.85
6.233561 24.934245 711.000000 0.85
6.233561 26.180957 711.000000 0.85
6.233561 27.427670 711.000000 0.85
6.233561 28.674382 711.000000 0.85
6.233561 29.921094 711.000000 0.85
6.233561 31.167806 711.000000 0.85
6.233561 32.414519 711.000000 0.85
6.233561 33.661231 711.000000 0.85
6.224794 34.858846 710.000000 0.85
6.224794 36.103805 710.000000 0.85
6.233561 37.401368 711.000000 0.85
6.233561 38.648080 711.000000 0.85
6.251096 40.007014 713.000000 0.85
6.251096 41.257233 713.000000 0.85
6.259863 42.567070 714.000000 0.85
6.259863 43.819043 714.000000 0.85
6.277398 45.197265 716.000000 0.85
6.277398 46.452744 716.000000 0.85
6.277398 47.708224 716.000000 0.85
6.277398 48.963703 716.000000 0.85
6.277398 50.219183 716.000000 0.85
6.286165 51.546554 717.000000 0.85
6.277398 52.730142 716.000000 0.85
6.259863 53.834824 714.000000 0.85
6.251096 55.009644 713.000000 0.85
6.251096 56.259863 713.000000 0.85
12.172541 12.172541 1157.000000 0.85
7.596002 8.862002 722.000000 0.85
7.596002 10.128003 722.000000 0.85
7.596002 11.394003 722.000000 0.85
7.574961 12.624934 720.000000 0.85
7.564440 13.868140 719.000000 0.85
7.564440 15.128880 719.000000 0.85
7.543398 16.344029 717.000000 0.85
7.532877 17.576714 716.000000 0.85
7.532877 18.832194 716.000000 0.85
7.532877 20.087673 716.000000 0.85
7.532877 21.343153 716.000000 0.85
7.511836 22.535508 714.000000 0.85
7.501315 23.754164 713.000000 0.85
7.501315 25.004384 713.000000 0.85
7.501315 26.254603 713.000000 0.85
7.480274 27.427670 711.000000 0.85
7.480274 28.674382 711.000000 0.85
7.480274 29.921094 711.000000 0.85
7.480274 31.167806 711.000000 0.85
7.480274 32.414519 711.000000 0.85
7.480274 33.661231 711.000000 0.85
7.480274 34.907943 711.000000 0.85
7.480274 36.154655 711.000000 0.85
7.480274 37.401368 711.000000 0.85
7.501315 38.756795 713.000000 0.85
7.501315 40.007014 713.000000 0.85
7.511836 41.315097 714.000000 0.85
7.511836 42.567070 714.000000 0.85
7.532877 43.941785 716.000000 0.85
7.532877 45.197265 716.000000 0.85
7.532877 46.452744 716.000000 0.85
7.543398 47.774855 717.000000 0.85
7.543398 49.032088 717.000000 0.85
7.543398 50.289321 717.000000 0.85
7.543398 51.546554 717.000000 0.85
7.532877 52.730142 716.000000 0.85
7.511836 53.834824 714.000000 0.85
7.501315 55.009644 713.000000 0.85
14.201298 12.172541 1157.000000 0.85
8.862002 8.862002 722.000000 0.85
8.874277 10.142031 723.000000 0.85
8.862002 11.394003 722.000000 0.85
8.862002 12.660004 722.000000 0.85
8.837454 13.887428 720.000000 0.85
8.837454 15.149921 720.000000 0.85
8.825180 16.389619 719.000000 0.85
8.800631 17.601262 717.000000 0.85
8.800631 18.858496 717.000000 0.85
8.800631 20.115729 717.000000 0.85
8.788357 21.343153 716.000000 0.85
8.788357 22.598632 716.000000 0.85
8.763809 23.787480 714.000000 0.85
8.763809 25.039453 714.000000 0.85
8.763809 26.291426 714.000000 0.85
8.751534 27.504822 713.000000 0.85
8.751534 28.755041 713.000000 0.85
8.751534 30.005260 713.000000 0.85
8.751534 31.255480 713.000000 0.85
8.751534 32.505699 713.000000 0.85
8.751534 33.755918 713.000000 0.85
8.751534 35.006137 713.000000 0.85
8.751534 36.256356 713.000000 0.85
8.751534 37.506575 713.000000 0.85
8.763809 38.811152 714.000000 0.85
8.763809 40.063125 714.000000 0.85
8.788357 41.430826 716.000000 0.85
8.788357 42.686305 716.000000 0.85
8.800631 44.003156 717.000000 0.85
8.800631 45.260389 717.000000 0.85
8.800631 46.517622 717.000000 0.85
8.800631 47.774855 717.000000 0.85
8.800631 49.032088 717.000000 0.85
8.800631 50.289321 717.000000 0.85
8.800631 51.546554 717.000000 0.85
8.788357 52.730142 716.000000 0.85
8.763809 53.834824 714.000000 0.85
10.142031 8.874277 723.000000 0.85
10.142031 10.142031 723.000000 0.85
10.128003 11.394003 722.000000 0.85
10.128003 12.660004 722.000000 0.85
10.128003 13.926004 722.000000 0.85
10.099947 15.149921 720.000000 0.85
10.085920 16.389619 719.000000 0.85
10.085920 17.650359 719.000000 0.85
10.085920 18.911099 719.000000 0.85
10.057864 20.115729 717.000000 0.85
10.057864 21.372962 717.000000 0.85
10.043837 22.598632 716.000000 0.85
10.043837 23.854112 716.000000 0.85
10.015781 25.039453 714.000000 0.85
10.015781 26.291426 714.000000 0.85
10.015781 27.543398 714.000000 0.85
10.001753 28.755041 713.000000 0.85
10.001753 30.005260 713.000000 0.85
10.001753 31.255480 713.000000 0.85
10.001753 32.505699 713.000000 0.85
10.001753 33.755918 713.000000 0.85
10.001753 35.006137 713.000000 0.85
10.001753 36.256356 713.000000 0.85
10.001753 37.506575 713.000000 0.85
10.043837 38.919867 716.000000 0.85
10.043837 40.175346 716.000000 0.85
10.043837 41.430826 716.000000 0.85
10.057864 42.745923 717.000000 0.85
10.057864 44.003156 717.000000 0.85
10.057864 45.260389 717.000000 0.85
10.057864 46.517622 717.000000 0.85
10.085920 47.908119 719.000000 0.85
10.085920 49.168858 719.000000 0.85
10.085920 50.429598 719.000000 0.85
10.057864 51.546554 717.000000 0.85
10.043837 52.730142 716.000000 0.85
11.409784 10.142031 723.000000 0.85
11.409784 11.409784 723.000000 0.85
11.409784 12.677538 723.000000 0.85
11.394003 13.926004 722.000000 0.85
11.394003 15.192004 722.000000 0.85
11.362441 16.412415 720.000000 0.85
11.362441 17.674908 720.000000 0.85
11.362441 18.937401 720.000000 0.85
11.346660 20.171839 719.000000 0.85
11.315097 21.372962 717.000000 0.85
11.315097 22.630195 717.000000 0.85
11.315097 23.887428 717.000000 0.85
11.299316 25.109591 716.000000 0.85
11.299316 26.365071 716.000000 0.85
11.267754 27.543398 714.000000 0.85
11.267754 28.795371 714.000000 0.85
11.267754 30.047344 714.000000 0.85
11.267754 31.299316 714.000000 0.85
11.251973 32.505699 713.000000 0.85
11.251973 33.755918 713.000000 0.85
11.251973 35.006137 713.000000 0.85
11.299316 36.408908 716.000000 0.85
11.299316 37.664387 716.000000 0.85
11.299316 38.919867 716.000000 0.85
11.299316 40.175346 716.000000 0.85
11.315097 41.488690 717.000000 0.85
11.315097 42.745923 717.000000 0.85
11.315097 44.003156 717.000000 0.85
11.315097 45.260389 717.000000 0.85
11.315097 46.517622 717.000000 0.85
11.346660 47.908119 719.000000 0.85
11.346660 49.168858 719.000000 0.85
11.346660 50.429598 719.000000 0.85
11.315097 51.546554 717.000000 0.85
11.299316 52.730142 716.000000 0.85
12.677538 11.409784 723.000000 0.85
12.677538 12.677538 723.000000 0.85
12.677538 13.945292 723.000000 0.85
12.660004 15.192004 722.000000 0.85
12.624934 16.412415 720.000000 0.85
12.624934 17.674908 720.000000 0.85
12.624934 18.937401 720.000000 0.85
12.607400 20.171839 719.000000 0.85
12.572330 21.372962 717.000000 0.85
12.572330 22.630195 717.000000 0.85
12.572330 23.887428 717.000000 0.85
12.554796 25.109591 716.000000 0.85
12.554796 26.365071 716.000000 0.85
12.554796 27.620551 716.000000 0.85
12.554796 28.876030 716.000000 0.85
12.554796 30.131510 716.000000 0.85
12.519726 31.299316 714.000000 0.85
12.519726 32.551289 714.000000 0.85
12.519726 33.803261 714.000000 0.85
12.554796 35.153428 716.000000 0.85
12.554796 36.408908 716.000000 0.85
12.554796 37.664387 716.000000 0.85
12.572330 38.974224 717.000000 0.85
12.572330 40.231457 717.000000 0.85
12.572330 41.488690 717.000000 0.85
12.572330 42.745923 717.000000 0.85
12.607400 44.125899 719.000000 0.85
12.607400 45.386639 719.000000 0.85
12.607400 46.647379 719.000000 0.85
12.624934 47.974750 720.000000 0.85
12.624934 49.237244 720.000000 0.85
12.624934 50.499737 720.000000 0.85
12.572330 51.546554 717.000000 0.85
13.945292 12.677538 723.000000 0.85
13.945292 13.945292 723.000000 0.85
13.926004 15.192004 722.000000 0.85
13.926004 16.458005 722.000000 0.85
13.926004 17.724005 722.000000 0.85
13.887428 18.937401 720.000000 0.85
13.868140 20.171839 719.000000 0.85
13.868140 21.432579 719.000000 0.85
13.829563 22.630195 717.000000 0.85
13.829563 23.887428 717.000000 0.85
13.810275 25.109591 716.000000 0.85
13.810275 26.365071 716.000000 0.85
13.810275 27.620551 716.000000 0.85
13.810275 28.876030 716.000000 0.85
13.810275 30.131510 716.000000 0.85
13.771699 31.299316 714.000000 0.85
13.771699 32.551289 714.000000 0.85
13.771699 33.803261 714.000000 0.85
13.810275 35.153428 716.000000 0.85
13.829563 36.459758 717.000000 0.85
13.829563 37.716991 717.000000 0.85
13.829563 38.974224 717.000000 0.85
13.829563 40.231457 717.000000 0.85
13.868140 41.604419 719.000000 0.85
13.868140 42.865159 719.000000 0.85
13.887428 44.187270 720.000000 0.85
13.887428 45.449763 720.000000 0.85
13.887428 46.712257 720.000000 0.85
13.926004 48.108013 722.000000 0.85
13.926004 49.374014 722.000000 0.85
13.926004 50.640014 722.000000 0.85
13.926004 51.906014 722.000000 0.85
18.095739 16.587761 860.000000 0.85
18.095739 18.095739 860.000000 0.85
15.213046 16.480800 723.000000 0.85
15.192004 17.724005 722.000000 0.85
15.192004 18.990005 722.000000 0.85
15.149921 20.199895 720.000000 0.85
15.128880 21.432579 719.000000 0.85
15.128880 22.693319 719.000000 0.85
15.086796 23.887428 717.000000 0.85
15.086796 25.144661 717.000000 0.85
15.086796 26.401894 717.000000 0.85
15.086796 27.659127 717.000000 0.85
15.065755 28.876030 716.000000 0.85
15.065755 30.131510 716.000000 0.85
15.065755 31.386989 716.000000 0.85
15.065755 32.642469 716.000000 0.85
15.065755 33.897948 716.000000 0.85
15.086796 35.202525 717.000000 0.85
15.086796 36.459758 717.000000 0.85
15.086796 37.716991 717.000000 0.85
15.128880 39.082939 719.000000 0.85
15.128880 40.343679 719.000000 0.85
15.128880 41.604419 719.000000 0.85
15.149921 42.924776 720.000000 0.85
15.149921 44.187270 720.000000 0.85
15.149921 45.449763 720.000000 0.85
15.192004 46.842013 722.000000 0.85
15.192004 48.108013 722.000000 0.85
15.213046 49.442399 723.000000 0.85
15.213046 50.710153 723.000000 0.85
15.213046 51.977906 723.000000 0.85
19.603717 18.095739 860.000000 0.85
19.603717 19.603717 860.000000 0.85
16.480800 17.748553 723.000000 0.85
16.480800 19.016307 723.000000 0.85
16.412415 20.199895 720.000000 0.85
16.389619 21.432579 719.000000 0.85
16.389619 22.693319 719.000000 0.85
16.344029 23.887428 717.000000 0.85
16.344029 25.144661 717.000000 0.85
16.344029 26.401894 717.000000 0.85
16.344029 27.659127 717.000000 0.85
16.344029 28.916360 717.000000 0.85
16.344029 30.173593 717.000000 0.85
16.344029 31.430826 717.000000 0.85
16.344029 32.688059 717.000000 0.85
16.344029 33.945292 717.000000 0.85
16.344029 35.202525 717.000000 0.85
16.344029 36.459758 717.000000 0.85
16.389619 37.822199 719.000000 0.85
16.389619 39.082939 719.000000 0.85
16.412415 40.399790 720.000000 0.85
16.412415 41.662283 720.000000 0.85
16.412415 42.924776 720.000000 0.85
16.458005 44.310012 722.000000 0.85
16.458005 45.576013 722.000000 0.85
16.458005 46.842013 722.000000 0.85
16.458005 48.108013 722.000000 0.85
16.480800 49.442399 723.000000 0.85
16.480800 50.710153 723.000000 0.85
21.062599 19.558127 858.000000 0.85
17.748553 17.748553 723.000000 0.85
17.748553 19.016307 723.000000 0.85
17.724005 20.256006 722.000000 0.85
17.724005 21.522006 722.000000 0.85
17.724005 22.788006 722.000000 0.85
17.674908 23.987375 720.000000 0.85
17.650359 25.214799 719.000000 0.85
17.650359 26.475539 719.000000 0.85
17.650359 27.736279 719.000000 0.85
17.650359 28.997019 719.000000 0.85
17.601262 30.173593 717.000000 0.85
17.601262 31.430826 717.000000 0.85
17.601262 32.688059 717.000000 0.85
17.601262 33.945292 717.000000 0.85
17.650359 35.300719 719.000000 0.85
17.650359 36.561459 719.000000 0.85
17.674908 37.874803 720.000000 0.85
17.674908 39.137296 720.000000 0.85
17.674908 40.399790 720.000000 0.85
17.674908 41.662283 720.000000 0.85
17.724005 43.044012 722.000000 0.85
17.724005 44.310012 722.000000 0.85
17.724005 45.576013 722.000000 0.85
17.724005 46.842013 722.000000 0.85
17.748553 48.174645 723.000000 0.85
17.748553 49.442399 723.000000 0.85
22.461862 20.964405 854.000000 0.85
19.068911 19.068911 725.000000 0.85
19.016307 20.284061 723.000000 0.85
19.016307 21.551815 723.000000 0.85
19.016307 22.819569 723.000000 0.85
18.990005 24.054007 722.000000 0.85
18.990005 25.320007 722.000000 0.85
18.937401 26.512362 720.000000 0.85
18.937401 27.774855 720.000000 0.85
18.937401 29.037349 720.000000 0.85
18.937401 30.299842 720.000000 0.85
18.911099 31.518499 719.000000 0.85
18.911099 32.779239 719.000000 0.85
18.911099 34.039979 719.000000 0.85
18.937401 35.349816 720.000000 0.85
18.937401 36.612309 720.000000 0.85
18.937401 37.874803 720.000000 0.85
18.937401 39.137296 720.000000 0.85
18.990005 40.512011 722.000000 0.85
18.990005 41.778012 722.000000 0.85
18.990005 43.044012 722.000000 0.85
18.990005 44.310012 722.000000 0.85
18.990005 45.576013 722.000000 0.85
18.990005 46.842013 722.000000 0.85
19.016307 48.174645 723.000000 0.85
23.875153 20.890759 851.000000 0.85
20.396283 19.121515 727.000000 0.85
20.340172 20.340172 725.000000 0.85
20.284061 21.551815 723.000000 0.85
20.284061 22.819569 723.000000 0.85
20.284061 24.087322 723.000000 0.85
20.284061 25.355076 723.000000 0.85
20.256006 26.586007 722.000000 0.85
20.256006 27.852008 722.000000 0.85
20.256006 29.118008 722.000000 0.85
20.256006 30.384008 722.000000 0.85
20.256006 31.650009 722.000000 0.85
20.199895 32.824829 720.000000 0.85
20.199895 34.087322 720.000000 0.85
20.256006 35.448010 722.000000 0.85
20.256006 36.714010 722.000000 0.85
20.256006 37.980011 722.000000 0.85
20.256006 39.246011 722.000000 0.85
20.256006 40.512011 722.000000 0.85
20.256006 41.778012 722.000000 0.85
20.256006 43.044012 722.000000 0.85
20.284061 44.371383 723.000000 0.85
20.284061 45.639137 723.000000 0.85
20.284061 46.906891 723.000000 0.85
21.671050 19.121515 727.000000 0.85
21.611433 20.340172 725.000000 0.85
21.551815 21.551815 723.000000 0.85
21.551815 22.819569 723.000000 0.85
21.611433 24.153954 725.000000 0.85
21.551815 25.355076 723.000000 0.85
21.551815 26.622830 723.000000 0.85
21.551815 27.890584 723.000000 0.85
21.551815 29.158338 723.000000 0.85
21.551815 30.426092 723.000000 0.85
21.551815 31.693845 723.000000 0.85
21.522006 32.916009 722.000000 0.85
21.522006 34.182009 722.000000 0.85
21.551815 35.497107 723.000000 0.85
21.551815 36.764861 723.000000 0.85
21.551815 38.032614 723.000000 0.85
21.551815 39.300368 723.000000 0.85
21.551815 40.568122 723.000000 0.85
21.551815 41.835876 723.000000 0.85
21.551815 43.103630 723.000000 0.85
21.551815 44.371383 723.000000 0.85
21.551815 45.639137 723.000000 0.85
22.882693 20.340172 725.000000 0.85
22.819569 21.551815 723.000000 0.85
22.819569 22.819569 723.000000 0.85
22.882693 24.153954 725.000000 0.85
22.882693 25.425215 725.000000 0.85
22.882693 26.696476 725.000000 0.85
22.882693 27.967736 725.000000 0.85
22.819569 29.158338 723.000000 0.85
22.819569 30.426092 723.000000 0.85
22.819569 31.693845 723.000000 0.85
22.819569 32.961599 723.000000 0.85
22.819569 34.229353 723.000000 0.85
22.819569 35.497107 723.000000 0.85
22.819569 36.764861 723.000000 0.85
22.819569 38.032614 723.000000 0.85
22.819569 39.300368 723.000000 0.85
22.819569 40.568122 723.000000 0.85
22.819569 41.835876 723.000000 0.85
22.819569 43.103630 723.000000 0.85
22.819569 44.371383 723.000000 0.85
24.087322 21.551815 723.000000 0.85
24.253901 22.977380 728.000000 0.85
24.220586 24.220586 727.000000 0.85
24.153954 25.425215 725.000000 0.85
24.153954 26.696476 725.000000 0.85
24.153954 27.967736 725.000000 0.85
24.220586 29.319656 727.000000 0.85
24.220586 30.594424 727.000000 0.85
24.153954 31.781518 725.000000 0.85
24.153954 33.052779 725.000000 0.85
24.220586 34.418727 727.000000 0.85
24.220586 35.693495 727.000000 0.85
24.153954 36.866561 725.000000 0.85
24.153954 38.137822 725.000000 0.85
24.153954 39.409083 725.000000 0.85
24.153954 40.680344 725.000000 0.85
24.087322 41.835876 723.000000 0.85
24.087322 43.103630 723.000000 0.85
29.423111 25.009644 839.000000 0.85
25.530423 22.977380 728.000000 0.85
25.530423 24.253901 728.000000 0.85
25.530423 25.530423 728.000000 0.85
25.530423 26.806944 728.000000 0.85
25.530423 28.083465 728.000000 0.85
25.530423 29.359986 728.000000 0.85
25.530423 30.636507 728.000000 0.85
25.530423 31.913028 728.000000 0.85
25.530423 33.189549 728.000000 0.85
25.530423 34.466070 728.000000 0.85
25.530423 35.742592 728.000000 0.85
25.530423 37.019113 728.000000 0.85
25.495353 38.243030 727.000000 0.85
25.495353 39.517798 727.000000 0.85
25.495353 40.792565 727.000000 0.85
25.495353 42.067333 727.000000 0.85
30.894266 25.009644 839.000000 0.85
30.820621 26.417675 837.000000 0.85
26.880589 24.320533 730.000000 0.85
26.880589 25.600561 730.000000 0.85
26.880589 26.880589 730.000000 0.85
26.806944 28.083465 728.000000 0.85
26.806944 29.359986 728.000000 0.85
26.806944 30.636507 728.000000 0.85
26.806944 31.913028 728.000000 0.85
26.806944 33.189549 728.000000 0.85
26.806944 34.466070 728.000000 0.85
26.806944 35.742592 728.000000 0.85
26.806944 37.019113 728.000000 0.85
26.770121 38.243030 727.000000 0.85
26.770121 39.517798 727.000000 0.85
26.770121 40.792565 727.000000 0.85
32.288269 24.950026 837.000000 0.85
32.288269 26.417675 837.000000 0.85
28.083465 24.253901 728.000000 0.85
28.083465 25.530423 728.000000 0.85
28.083465 26.806944 728.000000 0.85
28.083465 28.083465 728.000000 0.85
28.083465 29.359986 728.000000 0.85
28.083465 30.636507 728.000000 0.85
28.083465 31.913028 728.000000 0.85
28.083465 33.189549 728.000000 0.85
28.083465 34.466070 728.000000 0.85
28.083465 35.742592 728.000000 0.85
28.160617 37.120814 730.000000 0.85
28.160617 38.400842 730.000000 0.85
28.083465 39.572155 728.000000 0.85
33.755918 24.950026 837.000000 0.85
29.359986 22.977380 728.000000 0.85
29.359986 24.253901 728.000000 0.85
29.359986 25.530423 728.000000 0.85
29.359986 26.806944 728.000000 0.85
29.359986 28.083465 728.000000 0.85
29.359986 29.359986 728.000000 0.85
29.359986 30.636507 728.000000 0.85
29.359986 31.913028 728.000000 0.85
29.359986 33.189549 728.000000 0.85
29.359986 34.466070 728.000000 0.85
35.139400 24.890409 835.000000 0.85
30.636507 22.977380 728.000000 0.85
