ply
format ascii 1.0
comment
element vertex 1256
property float32 x
property float32 y
property float32 z
property float intensity
element face 0
property list uchar int vertex_indices
end_header
-33.613887 -14.939506 710.000000 0.85
-33.613887 -13.694547 710.000000 0.85
-33.519200 -12.414519 708.000000 0.85
-33.519200 -11.173067 708.000000 0.85
-33.471857 -9.917587 707.000000 0.85
-33.471857 -8.677889 707.000000 0.85
-33.424513 -7.427670 706.000000 0.85
-33.424513 -6.189725 706.000000 0.85
-33.329826 -4.937752 704.000000 0.85
-33.329826 -3.703314 704.000000 0.85
-33.282483 -2.465369 703.000000 0.85
-33.282483 -1.232685 703.000000 0.85
-33.187796 0.000000 701.000000 0.85
-33.187796 1.229178 701.000000 0.85
-33.187796 2.458355 701.000000 0.85
-33.187796 3.687533 701.000000 0.85
-33.187796 4.916711 701.000000 0.85
-33.187796 6.145888 701.000000 0.85
-33.187796 7.375066 701.000000 0.85
-33.140452 8.591969 700.000000 0.85
-33.140452 9.819393 700.000000 0.85
-33.140452 11.046817 700.000000 0.85
-33.187796 12.291776 701.000000 0.85
-33.282483 13.559530 703.000000 0.85
-33.329826 14.813256 704.000000 0.85
-33.329826 16.047694 704.000000 0.85
-33.329826 17.282132 704.000000 0.85
-33.329826 18.516570 704.000000 0.85
-33.329826 19.751008 704.000000 0.85
-33.329826 20.985446 704.000000 0.85
-33.329826 22.219884 704.000000 0.85
-33.424513 23.520954 706.000000 0.85
-33.424513 24.758899 706.000000 0.85
-33.424513 25.996844 706.000000 0.85
-33.471857 27.273365 707.000000 0.85
-33.471857 28.513063 707.000000 0.85
-33.519200 29.794845 708.000000 0.85
-33.519200 31.036297 708.000000 0.85
-33.613887 32.368929 710.000000 0.85
-33.613887 33.613887 710.000000 0.85
-33.613887 34.858846 710.000000 0.85
-33.803261 36.307207 714.000000 0.85
-51.334385 -39.487989 1126.000000 0.85
-32.916009 -24.054007 722.000000 0.85
-32.916009 -22.788006 722.000000 0.85
-32.916009 -21.522006 722.000000 0.85
-32.916009 -20.256006 722.000000 0.85
-32.779239 -18.911099 719.000000 0.85
-32.414519 -17.453972 711.000000 0.85
-32.368929 -16.184464 710.000000 0.85
-32.368929 -14.939506 710.000000 0.85
-32.277749 -13.655971 708.000000 0.85
-32.277749 -12.414519 708.000000 0.85
-32.232159 -11.157286 707.000000 0.85
-32.186568 -9.903560 706.000000 0.85
-32.186568 -8.665615 706.000000 0.85
-32.095388 -7.406628 704.000000 0.85
-32.095388 -6.172190 704.000000 0.85
-32.095388 -4.937752 704.000000 0.85
-31.958618 -3.687533 701.000000 0.85
-31.958618 -2.458355 701.000000 0.85
-31.958618 -1.229178 701.000000 0.85
-31.958618 0.000000 701.000000 0.85
-31.913028 1.227424 700.000000 0.85
-31.913028 2.454848 700.000000 0.85
-31.913028 3.682272 700.000000 0.85
-31.913028 4.909697 700.000000 0.85
-31.913028 6.137121 700.000000 0.85
-31.913028 7.364545 700.000000 0.85
-31.913028 8.591969 700.000000 0.85
-31.913028 9.819393 700.000000 0.85
-31.913028 11.046817 700.000000 0.85
-31.913028 12.274242 700.000000 0.85
-31.913028 13.501666 700.000000 0.85
-31.913028 14.729090 700.000000 0.85
-32.049798 16.024899 703.000000 0.85
-32.049798 17.257584 703.000000 0.85
-32.049798 18.490268 703.000000 0.85
-32.049798 19.722953 703.000000 0.85
-32.049798 20.955637 703.000000 0.85
-32.095388 22.219884 704.000000 0.85
-32.095388 23.454322 704.000000 0.85
-32.095388 24.688760 704.000000 0.85
-32.186568 25.996844 706.000000 0.85
-32.186568 27.234789 706.000000 0.85
-32.186568 28.472734 706.000000 0.85
-32.232159 29.752762 707.000000 0.85
-32.232159 30.992460 707.000000 0.85
-32.277749 32.277749 708.000000 0.85
-32.277749 33.519200 708.000000 0.85
-32.277749 34.760652 708.000000 0.85
-32.277749 36.002104 708.000000 0.85
-32.368929 38.593723 710.000000 0.85
-49.359986 -41.462388 1126.000000 0.85
-49.359986 -39.487989 1126.000000 0.85
-31.650009 -24.054007 722.000000 0.85
-31.650009 -22.788006 722.000000 0.85
-31.562336 -21.462388 720.000000 0.85
-31.562336 -20.199895 720.000000 0.85
-31.123970 -18.674382 710.000000 0.85
-31.036297 -17.380326 708.000000 0.85
-30.948624 -16.093284 706.000000 0.85
-30.948624 -14.855339 706.000000 0.85
-31.036297 -13.655971 708.000000 0.85
-30.992460 -12.396984 707.000000 0.85
-30.948624 -11.141504 706.000000 0.85
-30.948624 -9.903560 706.000000 0.85
-30.860950 -8.641066 704.000000 0.85
-30.860950 -7.406628 704.000000 0.85
-30.729441 -6.145888 701.000000 0.85
-30.685604 -4.909697 700.000000 0.85
-30.685604 -3.682272 700.000000 0.85
-30.685604 -2.454848 700.000000 0.85
-30.685604 -1.227424 700.000000 0.85
-30.685604 0.000000 700.000000 0.85
-30.685604 1.227424 700.000000 0.85
-30.597931 2.447834 698.000000 0.85
-30.597931 3.671752 698.000000 0.85
-30.597931 4.895669 698.000000 0.85
-30.597931 6.119586 698.000000 0.85
-30.597931 7.343503 698.000000 0.85
-30.597931 8.567421 698.000000 0.85
-30.597931 9.791338 698.000000 0.85
-30.597931 11.015255 698.000000 0.85
-30.597931 12.239172 698.000000 0.85
-30.597931 13.463090 698.000000 0.85
-30.597931 14.687007 698.000000 0.85
-30.597931 15.910924 698.000000 0.85
-30.685604 17.183938 700.000000 0.85
-30.685604 18.411362 700.000000 0.85
-30.729441 19.666842 701.000000 0.85
-30.729441 20.896020 701.000000 0.85
-30.860950 22.219884 704.000000 0.85
-30.860950 23.454322 704.000000 0.85
-30.860950 24.688760 704.000000 0.85
-30.860950 25.923198 704.000000 0.85
-30.860950 27.157636 704.000000 0.85
-30.860950 28.392074 704.000000 0.85
-30.948624 29.710679 706.000000 0.85
-30.948624 30.948624 706.000000 0.85
-30.948624 32.186568 706.000000 0.85
-30.992460 33.471857 707.000000 0.85
-30.992460 34.711555 707.000000 0.85
-31.036297 36.002104 708.000000 0.85
-31.123970 37.348764 710.000000 0.85
-31.123970 38.593723 710.000000 0.85
-31.562336 46.712257 720.000000 0.85
-31.562336 47.974750 720.000000 0.85
-47.385587 -41.462388 1126.000000 0.85
-30.384008 -25.320007 722.000000 0.85
-30.384008 -24.054007 722.000000 0.85
-30.384008 -22.788006 722.000000 0.85
-30.299842 -21.462388 720.000000 0.85
-30.299842 -20.199895 720.000000 0.85
-29.879011 -18.674382 710.000000 0.85
-29.794845 -17.380326 708.000000 0.85
-29.710679 -16.093284 706.000000 0.85
-29.710679 -14.855339 706.000000 0.85
-29.710679 -13.617394 706.000000 0.85
-29.710679 -12.379449 706.000000 0.85
-29.626512 -11.109942 704.000000 0.85
-29.626512 -9.875504 704.000000 0.85
-29.626512 -8.641066 704.000000 0.85
-29.500263 -7.375066 701.000000 0.85
-29.458180 -6.137121 700.000000 0.85
-29.374014 -4.895669 698.000000 0.85
-29.374014 -3.671752 698.000000 0.85
-29.374014 -2.447834 698.000000 0.85
-29.374014 -1.223917 698.000000 0.85
-29.374014 0.000000 698.000000 0.85
-29.374014 1.223917 698.000000 0.85
-29.374014 2.447834 698.000000 0.85
-29.374014 3.671752 698.000000 0.85
-29.374014 4.895669 698.000000 0.85
-29.374014 6.119586 698.000000 0.85
-29.374014 7.343503 698.000000 0.85
-29.374014 8.567421 698.000000 0.85
-29.374014 9.791338 698.000000 0.85
-29.331931 10.999474 697.000000 0.85
-29.331931 12.221638 697.000000 0.85
-29.374014 13.463090 698.000000 0.85
-29.374014 14.687007 698.000000 0.85
-29.374014 15.910924 698.000000 0.85
-29.374014 17.134841 698.000000 0.85
-29.458180 18.411362 700.000000 0.85
-29.458180 19.638787 700.000000 0.85
-29.500263 20.896020 701.000000 0.85
-29.500263 22.125197 701.000000 0.85
-29.584429 23.421006 703.000000 0.85
-29.584429 24.653691 703.000000 0.85
-29.626512 25.923198 704.000000 0.85
-29.626512 27.157636 704.000000 0.85
-29.626512 28.392074 704.000000 0.85
-29.626512 29.626512 704.000000 0.85
-29.626512 30.860950 704.000000 0.85
-29.626512 32.095388 704.000000 0.85
-29.710679 33.424513 706.000000 0.85
-29.710679 34.662458 706.000000 0.85
-29.710679 35.900403 706.000000 0.85
-29.794845 37.243556 708.000000 0.85
-29.794845 38.485008 708.000000 0.85
-29.879011 39.838681 710.000000 0.85
-30.047344 41.315097 714.000000 0.85
-30.131510 42.686305 716.000000 0.85
-30.257759 44.125899 719.000000 0.85
-30.257759 45.386639 719.000000 0.85
-30.299842 46.712257 720.000000 0.85
-30.299842 47.974750 720.000000 0.85
-30.173593 49.032088 717.000000 0.85
-45.572506 -41.609679 1130.000000 0.85
-29.118008 -25.320007 722.000000 0.85
-29.118008 -24.054007 722.000000 0.85
-29.037349 -22.724882 720.000000 0.85
-29.037349 -21.462388 720.000000 0.85
-28.997019 -20.171839 719.000000 0.85
-28.876030 -18.832194 716.000000 0.85
-28.634052 -17.429423 710.000000 0.85
-28.392074 -16.047694 704.000000 0.85
-28.392074 -14.813256 704.000000 0.85
-28.472734 -13.617394 706.000000 0.85
-28.392074 -12.344380 704.000000 0.85
-28.351745 -11.094161 703.000000 0.85
-28.271085 -9.833421 701.000000 0.85
-28.230756 -8.591969 700.000000 0.85
-28.230756 -7.364545 700.000000 0.85
-28.150096 -6.119586 698.000000 0.85
-28.150096 -4.895669 698.000000 0.85
-28.150096 -3.671752 698.000000 0.85
-28.150096 -2.447834 698.000000 0.85
-28.150096 -1.223917 698.000000 0.85
-28.109767 0.000000 697.000000 0.85
-28.109767 1.222164 697.000000 0.85
-28.109767 2.444328 697.000000 0.85
-28.109767 3.666491 697.000000 0.85
-28.109767 4.888655 697.000000 0.85
-28.109767 6.110819 697.000000 0.85
-28.109767 7.332983 697.000000 0.85
-28.109767 8.555146 697.000000 0.85
-28.109767 9.777310 697.000000 0.85
-28.109767 10.999474 697.000000 0.85
-28.109767 12.221638 697.000000 0.85
-28.109767 13.443802 697.000000 0.85
-28.109767 14.665965 697.000000 0.85
-28.150096 15.910924 698.000000 0.85
-28.150096 17.134841 698.000000 0.85
-28.150096 18.358759 698.000000 0.85
-28.150096 19.582676 698.000000 0.85
-28.230756 20.866211 700.000000 0.85
-28.271085 22.125197 701.000000 0.85
-28.271085 23.354375 701.000000 0.85
-28.351745 24.653691 703.000000 0.85
-28.351745 25.886376 703.000000 0.85
-28.351745 27.119060 703.000000 0.85
-28.351745 28.351745 703.000000 0.85
-28.351745 29.584429 703.000000 0.85
-28.392074 30.860950 704.000000 0.85
-28.392074 32.095388 704.000000 0.85
-28.392074 33.329826 704.000000 0.85
-28.392074 34.564264 704.000000 0.85
-28.392074 35.798702 704.000000 0.85
-28.553393 37.243556 708.000000 0.85
-28.553393 38.485008 708.000000 0.85
-28.634052 39.838681 710.000000 0.85
-28.674382 41.141504 711.000000 0.85
-28.795371 42.567070 714.000000 0.85
-28.876030 43.941785 716.000000 0.85
-28.876030 45.197265 716.000000 0.85
-28.876030 46.452744 716.000000 0.85
-28.916360 47.774855 717.000000 0.85
-28.916360 49.032088 717.000000 0.85
-30.206909 52.533754 749.000000 0.85
-27.852008 -25.320007 722.000000 0.85
-27.852008 -24.054007 722.000000 0.85
-27.774855 -22.724882 720.000000 0.85
-27.774855 -21.462388 720.000000 0.85
-27.659127 -20.115729 717.000000 0.85
-27.620551 -18.832194 716.000000 0.85
-27.504822 -17.503069 713.000000 0.85
-27.157636 -16.047694 704.000000 0.85
-27.157636 -14.813256 704.000000 0.85
-27.157636 -13.578818 704.000000 0.85
-27.041908 -12.291776 701.000000 0.85
-27.041908 -11.062599 701.000000 0.85
-27.003332 -9.819393 700.000000 0.85
-27.003332 -8.591969 700.000000 0.85
-26.926179 -7.343503 698.000000 0.85
-26.926179 -6.119586 698.000000 0.85
-26.887603 -4.888655 697.000000 0.85
-26.887603 -3.666491 697.000000 0.85
-26.887603 -2.444328 697.000000 0.85
-26.887603 -1.222164 697.000000 0.85
-26.887603 0.000000 697.000000 0.85
-26.887603 1.222164 697.000000 0.85
-26.887603 2.444328 697.000000 0.85
-26.887603 3.666491 697.000000 0.85
-26.887603 4.888655 697.000000 0.85
-26.887603 6.110819 697.000000 0.85
-26.887603 7.332983 697.000000 0.85
-26.887603 8.555146 697.000000 0.85
-26.887603 9.777310 697.000000 0.85
-26.887603 10.999474 697.000000 0.85
-26.887603 12.221638 697.000000 0.85
-26.887603 13.443802 697.000000 0.85
-26.887603 14.665965 697.000000 0.85
-26.887603 15.888129 697.000000 0.85
-26.887603 17.110293 697.000000 0.85
-26.926179 18.358759 698.000000 0.85
-26.926179 19.582676 698.000000 0.85
-26.926179 20.806593 698.000000 0.85
-27.003332 22.093635 700.000000 0.85
-27.003332 23.321059 700.000000 0.85
-27.041908 24.583553 701.000000 0.85
-27.041908 25.812730 701.000000 0.85
-27.119060 27.119060 703.000000 0.85
-27.119060 28.351745 703.000000 0.85
-27.119060 29.584429 703.000000 0.85
-27.119060 30.817114 703.000000 0.85
-27.157636 32.095388 704.000000 0.85
-27.157636 33.329826 704.000000 0.85
-27.157636 34.564264 704.000000 0.85
-27.157636 35.798702 704.000000 0.85
-27.273365 37.190952 707.000000 0.85
-27.273365 38.430651 707.000000 0.85
-27.389093 39.838681 710.000000 0.85
-27.427670 41.141504 711.000000 0.85
-27.427670 42.388217 711.000000 0.85
-27.504822 43.757671 713.000000 0.85
-27.543398 45.071015 714.000000 0.85
-27.620551 46.452744 716.000000 0.85
-27.620551 47.708224 716.000000 0.85
-27.659127 49.032088 717.000000 0.85
-27.736279 50.429598 719.000000 0.85
-28.893565 53.847098 749.000000 0.85
-41.609679 -39.628266 1130.000000 0.85
-26.586007 -24.054007 722.000000 0.85
-26.512362 -22.724882 720.000000 0.85
-26.512362 -21.462388 720.000000 0.85
-26.401894 -20.115729 717.000000 0.85
-26.401894 -18.858496 717.000000 0.85
-26.254603 -17.503069 713.000000 0.85
-25.886376 -16.024899 703.000000 0.85
-25.886376 -14.792215 703.000000 0.85
-25.886376 -13.559530 703.000000 0.85
-25.775907 -12.274242 700.000000 0.85
-25.775907 -11.046817 700.000000 0.85
-25.702262 -9.791338 698.000000 0.85
-25.702262 -8.567421 698.000000 0.85
-25.702262 -7.343503 698.000000 0.85
-25.665439 -6.110819 697.000000 0.85
-25.665439 -4.888655 697.000000 0.85
-25.665439 -3.666491 697.000000 0.85
-25.665439 -2.444328 697.000000 0.85
-25.665439 -1.222164 697.000000 0.85
-25.665439 0.000000 697.000000 0.85
-25.628617 1.220410 696.000000 0.85
-25.628617 2.440821 696.000000 0.85
-25.628617 3.661231 696.000000 0.85
-25.628617 4.881641 696.000000 0.85
-25.628617 6.102052 696.000000 0.85
-25.628617 7.322462 696.000000 0.85
-25.628617 8.542872 696.000000 0.85
-25.628617 9.763282 696.000000 0.85
-25.628617 10.983693 696.000000 0.85
-25.628617 12.204103 696.000000 0.85
-25.628617 13.424513 696.000000 0.85
-25.628617 14.644924 696.000000 0.85
-25.665439 15.888129 697.000000 0.85
-25.665439 17.110293 697.000000 0.85
-25.665439 18.332457 697.000000 0.85
-25.702262 19.582676 698.000000 0.85
-25.702262 20.806593 698.000000 0.85
-25.702262 22.030510 698.000000 0.85
-25.702262 23.254427 698.000000 0.85
-25.775907 24.548483 700.000000 0.85
-25.812730 25.812730 701.000000 0.85
-25.812730 27.041908 701.000000 0.85
-25.812730 28.271085 701.000000 0.85
-25.886376 29.584429 703.000000 0.85
-25.886376 30.817114 703.000000 0.85
-25.886376 32.049798 703.000000 0.85
-25.923198 33.329826 704.000000 0.85
-25.923198 34.564264 704.000000 0.85
-25.923198 35.798702 704.000000 0.85
-25.996844 37.138348 706.000000 0.85
-26.033666 38.430651 707.000000 0.85
-26.070489 39.726460 708.000000 0.85
-26.144135 41.083640 710.000000 0.85
-26.144135 42.328599 710.000000 0.85
-26.180957 43.634929 711.000000 0.85
-26.291426 45.071015 714.000000 0.85
-26.291426 46.322988 714.000000 0.85
-26.291426 47.574961 714.000000 0.85
-26.365071 48.963703 716.000000 0.85
-26.475539 50.429598 719.000000 0.85
-27.580221 53.847098 749.000000 0.85
-27.506575 55.013151 747.000000 0.85
-39.628266 -39.628266 1130.000000 0.85
-24.338068 -23.121164 694.000000 0.85
-24.338068 -21.904261 694.000000 0.85
-24.338068 -20.687358 694.000000 0.85
-25.144661 -20.115729 717.000000 0.85
-25.144661 -18.858496 717.000000 0.85
-24.548483 -17.183938 700.000000 0.85
-24.548483 -15.956514 700.000000 0.85
-24.583553 -14.750132 701.000000 0.85
-24.583553 -13.520954 701.000000 0.85
-24.478345 -12.239172 698.000000 0.85
-24.478345 -11.015255 698.000000 0.85
-24.478345 -9.791338 698.000000 0.85
-24.478345 -8.567421 698.000000 0.85
-24.478345 -7.343503 698.000000 0.85
-24.443275 -6.110819 697.000000 0.85
-24.408206 -4.881641 696.000000 0.85
-24.408206 -3.661231 696.000000 0.85
-24.408206 -2.440821 696.000000 0.85
-24.408206 -1.220410 696.000000 0.85
-24.408206 0.000000 696.000000 0.85
-24.408206 1.220410 696.000000 0.85
-24.408206 2.440821 696.000000 0.85
-24.408206 3.661231 696.000000 0.85
-24.408206 4.881641 696.000000 0.85
-24.408206 6.102052 696.000000 0.85
-24.408206 7.322462 696.000000 0.85
-24.408206 8.542872 696.000000 0.85
-24.408206 9.763282 696.000000 0.85
-24.408206 10.983693 696.000000 0.85
-24.408206 12.204103 696.000000 0.85
-24.408206 13.424513 696.000000 0.85
-24.408206 14.644924 696.000000 0.85
-24.443275 15.888129 697.000000 0.85
-24.443275 17.110293 697.000000 0.85
-24.443275 18.332457 697.000000 0.85
-24.443275 19.554620 697.000000 0.85
-24.443275 20.776784 697.000000 0.85
-24.478345 22.030510 698.000000 0.85
-24.478345 23.254427 698.000000 0.85
-24.478345 24.478345 698.000000 0.85
-24.548483 25.775907 700.000000 0.85
-24.583553 27.041908 701.000000 0.85
-24.583553 28.271085 701.000000 0.85
-24.653691 29.584429 703.000000 0.85
-24.653691 30.817114 703.000000 0.85
-24.653691 32.049798 703.000000 0.85
-24.688760 33.329826 704.000000 0.85
-24.688760 34.564264 704.000000 0.85
-24.688760 35.798702 704.000000 0.85
-24.758899 37.138348 706.000000 0.85
-24.793968 38.430651 707.000000 0.85
-24.829037 39.726460 708.000000 0.85
-24.899176 41.083640 710.000000 0.85
-24.899176 42.328599 710.000000 0.85
-24.934245 43.634929 711.000000 0.85
-25.004384 45.007891 713.000000 0.85
-25.039453 46.322988 714.000000 0.85
-25.039453 47.574961 714.000000 0.85
-25.109591 48.963703 716.000000 0.85
-25.214799 50.429598 719.000000 0.85
-25.320007 51.906014 722.000000 0.85
-26.196739 55.013151 747.000000 0.85
-26.161669 56.247589 746.000000 0.85
-37.646853 -39.628266 1130.000000 0.85
-23.121164 -23.121164 694.000000 0.85
-23.121164 -21.904261 694.000000 0.85
-23.121164 -20.687358 694.000000 0.85
-23.187796 -19.526565 696.000000 0.85
-23.254427 -18.358759 698.000000 0.85
-23.254427 -17.134841 698.000000 0.85
-23.254427 -15.910924 698.000000 0.85
-23.354375 -14.750132 701.000000 0.85
-23.321059 -13.501666 700.000000 0.85
-23.254427 -12.239172 698.000000 0.85
-23.254427 -11.015255 698.000000 0.85
-23.254427 -9.791338 698.000000 0.85
-23.221112 -8.555146 697.000000 0.85
-23.221112 -7.332983 697.000000 0.85
-23.221112 -6.110819 697.000000 0.85
-23.187796 -4.881641 696.000000 0.85
-23.187796 -3.661231 696.000000 0.85
-23.187796 -2.440821 696.000000 0.85
-23.187796 -1.220410 696.000000 0.85
-23.121164 0.000000 694.000000 0.85
-23.121164 1.216903 694.000000 0.85
-23.187796 2.440821 696.000000 0.85
-23.187796 3.661231 696.000000 0.85
-23.187796 4.881641 696.000000 0.85
-23.187796 6.102052 696.000000 0.85
-23.187796 7.322462 696.000000 0.85
-23.187796 8.542872 696.000000 0.85
-23.187796 9.763282 696.000000 0.85
-23.187796 10.983693 696.000000 0.85
-23.187796 12.204103 696.000000 0.85
-23.187796 13.424513 696.000000 0.85
-23.187796 14.644924 696.000000 0.85
-23.221112 15.888129 697.000000 0.85
-23.221112 17.110293 697.000000 0.85
-23.221112 18.332457 697.000000 0.85
-23.221112 19.554620 697.000000 0.85
-23.221112 20.776784 697.000000 0.85
-23.254427 22.030510 698.000000 0.85
-23.254427 23.254427 698.000000 0.85
-23.254427 24.478345 698.000000 0.85
-23.254427 25.702262 698.000000 0.85
-23.321059 27.003332 700.000000 0.85
-23.354375 28.271085 701.000000 0.85
-23.354375 29.500263 701.000000 0.85
-23.421006 30.817114 703.000000 0.85
-23.421006 32.049798 703.000000 0.85
-23.454322 33.329826 704.000000 0.85
-23.454322 34.564264 704.000000 0.85
-23.454322 35.798702 704.000000 0.85
-23.520954 37.138348 706.000000 0.85
-23.554270 38.430651 707.000000 0.85
-23.587585 39.726460 708.000000 0.85
-23.587585 40.967912 708.000000 0.85
-23.654217 42.328599 710.000000 0.85
-23.687533 43.634929 711.000000 0.85
-23.754164 45.007891 713.000000 0.85
-23.754164 46.258110 713.000000 0.85
-23.787480 47.574961 714.000000 0.85
-23.854112 48.963703 716.000000 0.85
-23.954059 50.429598 719.000000 0.85
-23.987375 51.762230 720.000000 0.85
-24.153954 53.392951 725.000000 0.85
-24.153954 54.664212 725.000000 0.85
-24.320533 56.321234 730.000000 0.85
-35.665439 -39.628266 1130.000000 0.85
-21.904261 -23.121164 694.000000 0.85
-21.904261 -21.904261 694.000000 0.85
-21.904261 -20.687358 694.000000 0.85
-21.967386 -19.526565 696.000000 0.85
-22.030510 -18.358759 698.000000 0.85
-22.030510 -17.134841 698.000000 0.85
-22.030510 -15.910924 698.000000 0.85
-22.125197 -14.750132 701.000000 0.85
-22.093635 -13.501666 700.000000 0.85
-22.030510 -12.239172 698.000000 0.85
-22.030510 -11.015255 698.000000 0.85
-22.030510 -9.791338 698.000000 0.85
-21.998948 -8.555146 697.000000 0.85
-21.998948 -7.332983 697.000000 0.85
-21.998948 -6.110819 697.000000 0.85
-21.967386 -4.881641 696.000000 0.85
-21.967386 -3.661231 696.000000 0.85
-21.967386 -2.440821 696.000000 0.85
-21.967386 -1.220410 696.000000 0.85
-21.904261 0.000000 694.000000 0.85
-21.904261 1.216903 694.000000 0.85
-21.967386 2.440821 696.000000 0.85
-21.967386 3.661231 696.000000 0.85
-21.967386 4.881641 696.000000 0.85
-21.967386 6.102052 696.000000 0.85
-21.967386 7.322462 696.000000 0.85
-21.967386 8.542872 696.000000 0.85
-21.967386 9.763282 696.000000 0.85
-21.967386 10.983693 696.000000 0.85
-21.967386 12.204103 696.000000 0.85
-21.967386 13.424513 696.000000 0.85
-21.967386 14.644924 696.000000 0.85
-21.998948 15.888129 697.000000 0.85
-21.998948 17.110293 697.000000 0.85
-21.998948 18.332457 697.000000 0.85
-21.998948 19.554620 697.000000 0.85
-21.998948 20.776784 697.000000 0.85
-22.030510 22.030510 698.000000 0.85
-22.030510 23.254427 698.000000 0.85
-22.030510 24.478345 698.000000 0.85
-22.030510 25.702262 698.000000 0.85
-22.093635 27.003332 700.000000 0.85
-22.125197 28.271085 701.000000 0.85
-22.125197 29.500263 701.000000 0.85
-22.188322 30.817114 703.000000 0.85
-22.188322 32.049798 703.000000 0.85
-22.188322 33.282483 703.000000 0.85
-22.219884 34.564264 704.000000 0.85
-22.219884 35.798702 704.000000 0.85
-22.283009 37.138348 706.000000 0.85
-22.283009 38.376293 706.000000 0.85
-22.346134 39.726460 708.000000 0.85
-22.346134 40.967912 708.000000 0.85
-22.409258 42.328599 710.000000 0.85
-22.440821 43.634929 711.000000 0.85
-22.503945 45.007891 713.000000 0.85
-22.503945 46.258110 713.000000 0.85
-22.535508 47.574961 714.000000 0.85
-22.598632 48.963703 716.000000 0.85
-22.630195 50.289321 717.000000 0.85
-22.693319 51.690338 719.000000 0.85
-22.819569 53.245660 723.000000 0.85
-22.882693 54.664212 725.000000 0.85
-22.882693 55.935473 725.000000 0.85
-22.977380 57.443451 728.000000 0.85
-33.684026 -39.628266 1130.000000 0.85
-20.746975 -23.187796 696.000000 0.85
-20.746975 -21.967386 696.000000 0.85
-20.746975 -20.746975 696.000000 0.85
-20.776784 -19.554620 697.000000 0.85
-20.806593 -18.358759 698.000000 0.85
-20.806593 -17.134841 698.000000 0.85
-20.866211 -15.956514 700.000000 0.85
-20.866211 -14.729090 700.000000 0.85
-20.866211 -13.501666 700.000000 0.85
-20.806593 -12.239172 698.000000 0.85
-20.806593 -11.015255 698.000000 0.85
-20.806593 -9.791338 698.000000 0.85
-20.806593 -8.567421 698.000000 0.85
-20.806593 -7.343503 698.000000 0.85
-20.776784 -6.110819 697.000000 0.85
-20.746975 -4.881641 696.000000 0.85
-20.746975 -3.661231 696.000000 0.85
-20.746975 -2.440821 696.000000 0.85
-20.746975 -1.220410 696.000000 0.85
-20.746975 0.000000 696.000000 0.85
-20.746975 1.220410 696.000000 0.85
-20.746975 2.440821 696.000000 0.85
-20.746975 3.661231 696.000000 0.85
-20.746975 4.881641 696.000000 0.85
-20.746975 6.102052 696.000000 0.85
-20.746975 7.322462 696.000000 0.85
-20.746975 8.542872 696.000000 0.85
-20.746975 9.763282 696.000000 0.85
-20.746975 10.983693 696.000000 0.85
-20.776784 12.221638 697.000000 0.85
-20.746975 13.424513 696.000000 0.85
-20.746975 14.644924 696.000000 0.85
-20.776784 15.888129 697.000000 0.85
-20.776784 17.110293 697.000000 0.85
-20.776784 18.332457 697.000000 0.85
-20.776784 19.554620 697.000000 0.85
-20.806593 20.806593 698.000000 0.85
-20.806593 22.030510 698.000000 0.85
-20.806593 23.254427 698.000000 0.85
-20.866211 24.548483 700.000000 0.85
-20.866211 25.775907 700.000000 0.85
-20.866211 27.003332 700.000000 0.85
-20.896020 28.271085 701.000000 0.85
-20.955637 29.584429 703.000000 0.85
-20.955637 30.817114 703.000000 0.85
-20.955637 32.049798 703.000000 0.85
-20.955637 33.282483 703.000000 0.85
-20.985446 34.564264 704.000000 0.85
-20.985446 35.798702 704.000000 0.85
-21.045064 37.138348 706.000000 0.85
-21.045064 38.376293 706.000000 0.85
-21.104682 39.726460 708.000000 0.85
-21.104682 40.967912 708.000000 0.85
-21.164299 42.328599 710.000000 0.85
-21.194108 43.634929 711.000000 0.85
-21.253726 45.007891 713.000000 0.85
-21.253726 46.258110 713.000000 0.85
-21.283535 47.574961 714.000000 0.85
-21.343153 48.963703 716.000000 0.85
-21.372962 50.289321 717.000000 0.85
-21.432579 51.690338 719.000000 0.85
-21.551815 53.245660 723.000000 0.85
-21.551815 54.513414 723.000000 0.85
-21.611433 55.935473 725.000000 0.85
-21.700859 57.443451 728.000000 0.85
-31.702613 -39.628266 1130.000000 0.85
-19.526565 -23.187796 696.000000 0.85
-19.526565 -21.967386 696.000000 0.85
-19.526565 -20.746975 696.000000 0.85
-19.554620 -19.554620 697.000000 0.85
-19.582676 -18.358759 698.000000 0.85
-19.638787 -17.183938 700.000000 0.85
-19.638787 -15.956514 700.000000 0.85
-19.638787 -14.729090 700.000000 0.85
-19.638787 -13.501666 700.000000 0.85
-19.582676 -12.239172 698.000000 0.85
-19.582676 -11.015255 698.000000 0.85
-19.582676 -9.791338 698.000000 0.85
-19.582676 -8.567421 698.000000 0.85
-19.582676 -7.343503 698.000000 0.85
-19.554620 -6.110819 697.000000 0.85
-19.526565 -4.881641 696.000000 0.85
-19.526565 -3.661231 696.000000 0.85
-19.526565 -2.440821 696.000000 0.85
-19.526565 -1.220410 696.000000 0.85
-19.526565 0.000000 696.000000 0.85
-19.526565 1.220410 696.000000 0.85
-19.470454 2.433807 694.000000 0.85
-19.470454 3.650710 694.000000 0.85
-19.526565 4.881641 696.000000 0.85
-19.526565 6.102052 696.000000 0.85
-19.526565 7.322462 696.000000 0.85
-19.526565 8.542872 696.000000 0.85
-19.554620 9.777310 697.000000 0.85
-19.554620 10.999474 697.000000 0.85
-19.526565 12.204103 696.000000 0.85
-19.526565 13.424513 696.000000 0.85
-19.526565 14.644924 696.000000 0.85
-19.554620 15.888129 697.000000 0.85
-19.554620 17.110293 697.000000 0.85
-19.554620 18.332457 697.000000 0.85
-19.554620 19.554620 697.000000 0.85
-19.582676 20.806593 698.000000 0.85
-19.582676 22.030510 698.000000 0.85
-19.582676 23.254427 698.000000 0.85
-19.582676 24.478345 698.000000 0.85
-19.638787 25.775907 700.000000 0.85
-19.638787 27.003332 700.000000 0.85
-19.666842 28.271085 701.000000 0.85
-19.666842 29.500263 701.000000 0.85
-19.722953 30.817114 703.000000 0.85
-19.751008 32.095388 704.000000 0.85
-19.751008 33.329826 704.000000 0.85
-19.807119 34.662458 706.000000 0.85
-19.807119 35.900403 706.000000 0.85
-19.835174 37.190952 707.000000 0.85
-19.835174 38.430651 707.000000 0.85
-19.863230 39.726460 708.000000 0.85
-19.919341 41.083640 710.000000 0.85
-19.919341 42.328599 710.000000 0.85
-19.947396 43.634929 711.000000 0.85
-20.003507 45.007891 713.000000 0.85
-20.031562 46.322988 714.000000 0.85
-20.087673 47.708224 716.000000 0.85
-20.115729 49.032088 717.000000 0.85
-20.171839 50.429598 719.000000 0.85
-20.199895 51.762230 720.000000 0.85
-20.284061 53.245660 723.000000 0.85
-20.284061 54.513414 723.000000 0.85
-20.340172 55.935473 725.000000 0.85
-20.396283 57.364545 727.000000 0.85
-29.826407 -39.768543 1134.000000 0.85
-18.306155 -23.187796 696.000000 0.85
-18.306155 -21.967386 696.000000 0.85
-18.306155 -20.746975 696.000000 0.85
-18.332457 -19.554620 697.000000 0.85
-18.358759 -18.358759 698.000000 0.85
-18.411362 -17.183938 700.000000 0.85
-18.411362 -15.956514 700.000000 0.85
-18.411362 -14.729090 700.000000 0.85
-18.411362 -13.501666 700.000000 0.85
-18.358759 -12.239172 698.000000 0.85
-18.358759 -11.015255 698.000000 0.85
-18.358759 -9.791338 698.000000 0.85
-18.358759 -8.567421 698.000000 0.85
-18.332457 -7.332983 697.000000 0.85
-18.306155 -6.102052 696.000000 0.85
-18.306155 -4.881641 696.000000 0.85
-18.306155 -3.661231 696.000000 0.85
-18.306155 -2.440821 696.000000 0.85
-18.306155 -1.220410 696.000000 0.85
-18.306155 0.000000 696.000000 0.85
-18.306155 1.220410 696.000000 0.85
-18.253551 2.433807 694.000000 0.85
-18.253551 3.650710 694.000000 0.85
-18.306155 4.881641 696.000000 0.85
-18.306155 6.102052 696.000000 0.85
-18.306155 7.322462 696.000000 0.85
-18.306155 8.542872 696.000000 0.85
-18.306155 9.763282 696.000000 0.85
-18.306155 10.983693 696.000000 0.85
-18.306155 12.204103 696.000000 0.85
-18.306155 13.424513 696.000000 0.85
-18.306155 14.644924 696.000000 0.85
-18.306155 15.865334 696.000000 0.85
-18.332457 17.110293 697.000000 0.85
-18.332457 18.332457 697.000000 0.85
-18.332457 19.554620 697.000000 0.85
-18.332457 20.776784 697.000000 0.85
-18.358759 22.030510 698.000000 0.85
-18.358759 23.254427 698.000000 0.85
-18.358759 24.478345 698.000000 0.85
-18.411362 25.775907 700.000000 0.85
-18.411362 27.003332 700.000000 0.85
-18.411362 28.230756 700.000000 0.85
-18.437664 29.500263 701.000000 0.85
-18.490268 30.817114 703.000000 0.85
-18.490268 32.049798 703.000000 0.85
-18.516570 33.329826 704.000000 0.85
-18.516570 34.564264 704.000000 0.85
-18.569174 35.900403 706.000000 0.85
-18.569174 37.138348 706.000000 0.85
-18.595476 38.430651 707.000000 0.85
-18.621778 39.726460 708.000000 0.85
-18.674382 41.083640 710.000000 0.85
-18.674382 42.328599 710.000000 0.85
-18.700684 43.634929 711.000000 0.85
-18.700684 44.881641 711.000000 0.85
-18.779590 46.322988 714.000000 0.85
-18.832194 47.708224 716.000000 0.85
-18.858496 49.032088 717.000000 0.85
-18.911099 50.429598 719.000000 0.85
-18.937401 51.762230 720.000000 0.85
-18.990005 53.172015 722.000000 0.85
-19.016307 54.513414 723.000000 0.85
-19.016307 55.781168 723.000000 0.85
-19.068911 57.206733 725.000000 0.85
-27.837980 -39.768543 1134.000000 0.85
-17.085744 -23.187796 696.000000 0.85
-17.085744 -21.967386 696.000000 0.85
-17.110293 -20.776784 697.000000 0.85
-17.110293 -19.554620 697.000000 0.85
-17.134841 -18.358759 698.000000 0.85
-17.183938 -17.183938 700.000000 0.85
-17.183938 -15.956514 700.000000 0.85
-17.183938 -14.729090 700.000000 0.85
-17.183938 -13.501666 700.000000 0.85
-17.134841 -12.239172 698.000000 0.85
-17.134841 -11.015255 698.000000 0.85
-17.134841 -9.791338 698.000000 0.85
-17.134841 -8.567421 698.000000 0.85
-17.110293 -7.332983 697.000000 0.85
-17.085744 -6.102052 696.000000 0.85
-17.085744 -4.881641 696.000000 0.85
-17.085744 -3.661231 696.000000 0.85
-17.036647 -2.433807 694.000000 0.85
-17.036647 -1.216903 694.000000 0.85
-17.036647 0.000000 694.000000 0.85
-17.036647 1.216903 694.000000 0.85
-17.036647 2.433807 694.000000 0.85
-17.036647 3.650710 694.000000 0.85
-17.085744 4.881641 696.000000 0.85
-17.036647 6.084517 694.000000 0.85
-17.036647 7.301420 694.000000 0.85
-17.036647 8.518324 694.000000 0.85
-17.085744 9.763282 696.000000 0.85
-17.085744 10.983693 696.000000 0.85
-17.085744 12.204103 696.000000 0.85
-17.085744 13.424513 696.000000 0.85
-17.085744 14.644924 696.000000 0.85
-17.085744 15.865334 696.000000 0.85
-17.085744 17.085744 696.000000 0.85
-17.110293 18.332457 697.000000 0.85
-17.110293 19.554620 697.000000 0.85
-17.110293 20.776784 697.000000 0.85
-17.110293 21.998948 697.000000 0.85
-17.134841 23.254427 698.000000 0.85
-17.134841 24.478345 698.000000 0.85
-17.134841 25.702262 698.000000 0.85
-17.183938 27.003332 700.000000 0.85
-17.183938 28.230756 700.000000 0.85
-17.183938 29.458180 700.000000 0.85
-17.208487 30.729441 701.000000 0.85
-17.208487 31.958618 701.000000 0.85
-17.257584 33.282483 703.000000 0.85
-17.257584 34.515167 703.000000 0.85
-17.282132 35.798702 704.000000 0.85
-17.331229 37.138348 706.000000 0.85
-17.331229 38.376293 706.000000 0.85
-17.355778 39.670349 707.000000 0.85
-17.380326 40.967912 708.000000 0.85
-17.429423 42.328599 710.000000 0.85
-17.453972 43.634929 711.000000 0.85
-17.453972 44.881641 711.000000 0.85
-17.503069 46.258110 713.000000 0.85
-17.576714 47.708224 716.000000 0.85
-17.601262 49.032088 717.000000 0.85
-17.650359 50.429598 719.000000 0.85
-17.674908 51.762230 720.000000 0.85
-17.724005 53.172015 722.000000 0.85
-17.748553 54.513414 723.000000 0.85
-17.748553 55.781168 723.000000 0.85
-17.797650 57.206733 725.000000 0.85
-25.758373 -39.628266 1130.000000 0.85
-15.819744 -23.121164 694.000000 0.85
-15.819744 -21.904261 694.000000 0.85
-15.819744 -20.687358 694.000000 0.85
-15.888129 -19.554620 697.000000 0.85
-15.910924 -18.358759 698.000000 0.85
-15.956514 -17.183938 700.000000 0.85
-15.956514 -15.956514 700.000000 0.85
-15.956514 -14.729090 700.000000 0.85
-15.956514 -13.501666 700.000000 0.85
-15.956514 -12.274242 700.000000 0.85
-15.910924 -11.015255 698.000000 0.85
-15.910924 -9.791338 698.000000 0.85
-15.910924 -8.567421 698.000000 0.85
-15.888129 -7.332983 697.000000 0.85
-15.865334 -6.102052 696.000000 0.85
-15.865334 -4.881641 696.000000 0.85
-15.819744 -3.650710 694.000000 0.85
-15.819744 -2.433807 694.000000 0.85
-15.819744 -1.216903 694.000000 0.85
-15.819744 0.000000 694.000000 0.85
-15.819744 1.216903 694.000000 0.85
-15.819744 2.433807 694.000000 0.85
-15.819744 3.650710 694.000000 0.85
-15.865334 4.881641 696.000000 0.85
-15.819744 6.084517 694.000000 0.85
-15.819744 7.301420 694.000000 0.85
-15.819744 8.518324 694.000000 0.85
-15.865334 9.763282 696.000000 0.85
-15.865334 10.983693 696.000000 0.85
-15.865334 12.204103 696.000000 0.85
-15.865334 13.424513 696.000000 0.85
-15.865334 14.644924 696.000000 0.85
-15.865334 15.865334 696.000000 0.85
-15.865334 17.085744 696.000000 0.85
-15.888129 18.332457 697.000000 0.85
-15.888129 19.554620 697.000000 0.85
-15.888129 20.776784 697.000000 0.85
-15.888129 21.998948 697.000000 0.85
-15.910924 23.254427 698.000000 0.85
-15.910924 24.478345 698.000000 0.85
-15.910924 25.702262 698.000000 0.85
-15.956514 27.003332 700.000000 0.85
-15.956514 28.230756 700.000000 0.85
-15.956514 29.458180 700.000000 0.85
-15.979309 30.729441 701.000000 0.85
-15.979309 31.958618 701.000000 0.85
-15.979309 33.187796 701.000000 0.85
-16.024899 34.515167 703.000000 0.85
-16.047694 35.798702 704.000000 0.85
-16.093284 37.138348 706.000000 0.85
-16.093284 38.376293 706.000000 0.85
-16.116079 39.670349 707.000000 0.85
-16.138874 40.967912 708.000000 0.85
-16.184464 42.328599 710.000000 0.85
-16.207259 43.634929 711.000000 0.85
-16.207259 44.881641 711.000000 0.85
-16.252849 46.258110 713.000000 0.85
-16.321234 47.708224 716.000000 0.85
-16.344029 49.032088 717.000000 0.85
-16.389619 50.429598 719.000000 0.85
-16.412415 51.762230 720.000000 0.85
-16.458005 53.172015 722.000000 0.85
-16.480800 54.513414 723.000000 0.85
-16.480800 55.781168 723.000000 0.85
-16.526390 57.206733 725.000000 0.85
-23.776959 -39.628266 1130.000000 0.85
-14.602841 -23.121164 694.000000 0.85
-14.602841 -21.904261 694.000000 0.85
-14.602841 -20.687358 694.000000 0.85
-14.665965 -19.554620 697.000000 0.85
-14.729090 -18.411362 700.000000 0.85
-14.729090 -17.183938 700.000000 0.85
-14.729090 -15.956514 700.000000 0.85
-14.729090 -14.729090 700.000000 0.85
-14.729090 -13.501666 700.000000 0.85
-14.687007 -12.239172 698.000000 0.85
-14.687007 -11.015255 698.000000 0.85
-14.687007 -9.791338 698.000000 0.85
-14.665965 -8.555146 697.000000 0.85
-14.644924 -7.322462 696.000000 0.85
-14.644924 -6.102052 696.000000 0.85
-14.602841 -4.867614 694.000000 0.85
-14.602841 -3.650710 694.000000 0.85
-14.602841 -2.433807 694.000000 0.85
-14.602841 -1.216903 694.000000 0.85
-14.602841 0.000000 694.000000 0.85
-14.602841 1.216903 694.000000 0.85
-14.602841 2.433807 694.000000 0.85
-14.602841 3.650710 694.000000 0.85
-14.602841 4.867614 694.000000 0.85
-14.602841 6.084517 694.000000 0.85
-14.644924 7.322462 696.000000 0.85
-14.644924 8.542872 696.000000 0.85
-14.644924 9.763282 696.000000 0.85
-14.644924 10.983693 696.000000 0.85
-14.644924 12.204103 696.000000 0.85
-14.644924 13.424513 696.000000 0.85
-14.644924 14.644924 696.000000 0.85
-14.644924 15.865334 696.000000 0.85
-14.665965 17.110293 697.000000 0.85
-14.665965 18.332457 697.000000 0.85
-14.665965 19.554620 697.000000 0.85
-14.665965 20.776784 697.000000 0.85
-14.665965 21.998948 697.000000 0.85
-14.687007 23.254427 698.000000 0.85
-14.687007 24.478345 698.000000 0.85
-14.687007 25.702262 698.000000 0.85
-14.687007 26.926179 698.000000 0.85
-14.729090 28.230756 700.000000 0.85
-14.729090 29.458180 700.000000 0.85
-14.729090 30.685604 700.000000 0.85
-14.729090 31.913028 700.000000 0.85
-14.750132 33.187796 701.000000 0.85
-14.750132 34.416974 701.000000 0.85
-14.813256 35.798702 704.000000 0.85
-14.813256 37.033140 704.000000 0.85
-14.855339 38.376293 706.000000 0.85
-14.876381 39.670349 707.000000 0.85
-14.897422 40.967912 708.000000 0.85
-14.897422 42.209363 708.000000 0.85
-14.939506 43.573558 710.000000 0.85
-14.960547 44.881641 711.000000 0.85
-15.002630 46.258110 713.000000 0.85
-15.065755 47.708224 716.000000 0.85
-15.086796 49.032088 717.000000 0.85
-15.128880 50.429598 719.000000 0.85
-15.149921 51.762230 720.000000 0.85
-15.192004 53.172015 722.000000 0.85
-15.213046 54.513414 723.000000 0.85
-15.213046 55.781168 723.000000 0.85
-15.255129 57.206733 725.000000 0.85
-21.718394 -39.487989 1126.000000 0.85
-13.385937 -23.121164 694.000000 0.85
-13.385937 -21.904261 694.000000 0.85
-13.501666 -20.866211 700.000000 0.85
-13.501666 -19.638787 700.000000 0.85
-13.520954 -18.437664 701.000000 0.85
-13.501666 -17.183938 700.000000 0.85
-13.501666 -15.956514 700.000000 0.85
-13.501666 -14.729090 700.000000 0.85
-13.501666 -13.501666 700.000000 0.85
-13.463090 -12.239172 698.000000 0.85
-13.463090 -11.015255 698.000000 0.85
-13.463090 -9.791338 698.000000 0.85
-13.443802 -8.555146 697.000000 0.85
-13.424513 -7.322462 696.000000 0.85
-13.424513 -6.102052 696.000000 0.85
-13.385937 -4.867614 694.000000 0.85
-13.385937 -3.650710 694.000000 0.85
-13.385937 -2.433807 694.000000 0.85
-13.385937 -1.216903 694.000000 0.85
-13.385937 0.000000 694.000000 0.85
-13.385937 1.216903 694.000000 0.85
-13.385937 2.433807 694.000000 0.85
-13.366649 3.645450 693.000000 0.85
-13.366649 4.860600 693.000000 0.85
-13.385937 6.084517 694.000000 0.85
-13.385937 7.301420 694.000000 0.85
-13.424513 8.542872 696.000000 0.85
-13.424513 9.763282 696.000000 0.85
-13.424513 10.983693 696.000000 0.85
-13.424513 12.204103 696.000000 0.85
-13.424513 13.424513 696.000000 0.85
-13.424513 14.644924 696.000000 0.85
-13.424513 15.865334 696.000000 0.85
-13.424513 17.085744 696.000000 0.85
-13.424513 18.306155 696.000000 0.85
-13.424513 19.526565 696.000000 0.85
-13.424513 20.746975 696.000000 0.85
-13.443802 21.998948 697.000000 0.85
-13.443802 23.221112 697.000000 0.85
-13.463090 24.478345 698.000000 0.85
-13.463090 25.702262 698.000000 0.85
-13.463090 26.926179 698.000000 0.85
-13.463090 28.150096 698.000000 0.85
-13.501666 29.458180 700.000000 0.85
-13.501666 30.685604 700.000000 0.85
-13.501666 31.913028 700.000000 0.85
-13.520954 33.187796 701.000000 0.85
-13.520954 34.416974 701.000000 0.85
-13.559530 35.747852 703.000000 0.85
-13.578818 37.033140 704.000000 0.85
-13.617394 38.376293 706.000000 0.85
-13.617394 39.614238 706.000000 0.85
-13.636682 40.910047 707.000000 0.85
-13.655971 42.209363 708.000000 0.85
-13.694547 43.573558 710.000000 0.85
-13.713835 44.881641 711.000000 0.85
-13.752411 46.258110 713.000000 0.85
-13.810275 47.708224 716.000000 0.85
-13.829563 49.032088 717.000000 0.85
-13.868140 50.429598 719.000000 0.85
-13.868140 51.690338 719.000000 0.85
-13.887428 53.024724 720.000000 0.85
-13.926004 54.438015 722.000000 0.85
-13.945292 55.781168 723.000000 0.85
-13.983868 57.206733 725.000000 0.85
-19.743994 -39.487989 1126.000000 0.85
-12.169034 -23.121164 694.000000 0.85
-12.274242 -22.093635 700.000000 0.85
-12.274242 -20.866211 700.000000 0.85
-12.326846 -19.722953 703.000000 0.85
-12.291776 -18.437664 701.000000 0.85
-12.291776 -17.208487 701.000000 0.85
-12.274242 -15.956514 700.000000 0.85
-12.274242 -14.729090 700.000000 0.85
-12.239172 -13.463090 698.000000 0.85
-12.239172 -12.239172 698.000000 0.85
-12.239172 -11.015255 698.000000 0.85
-12.221638 -9.777310 697.000000 0.85
-12.204103 -8.542872 696.000000 0.85
-12.204103 -7.322462 696.000000 0.85
-12.169034 -6.084517 694.000000 0.85
-12.169034 -4.867614 694.000000 0.85
-12.169034 -3.650710 694.000000 0.85
-12.151499 -2.430300 693.000000 0.85
-12.151499 -1.215150 693.000000 0.85
-12.151499 0.000000 693.000000 0.85
-12.151499 1.215150 693.000000 0.85
-12.151499 2.430300 693.000000 0.85
-12.151499 3.645450 693.000000 0.85
-12.151499 4.860600 693.000000 0.85
-12.169034 6.084517 694.000000 0.85
-12.169034 7.301420 694.000000 0.85
-12.204103 8.542872 696.000000 0.85
-12.204103 9.763282 696.000000 0.85
-12.204103 10.983693 696.000000 0.85
-12.204103 12.204103 696.000000 0.85
-12.204103 13.424513 696.000000 0.85
-12.204103 14.644924 696.000000 0.85
-12.204103 15.865334 696.000000 0.85
-12.204103 17.085744 696.000000 0.85
-12.204103 18.306155 696.000000 0.85
-12.204103 19.526565 696.000000 0.85
-12.204103 20.746975 696.000000 0.85
-12.221638 21.998948 697.000000 0.85
-12.221638 23.221112 697.000000 0.85
-12.239172 24.478345 698.000000 0.85
-12.239172 25.702262 698.000000 0.85
-12.239172 26.926179 698.000000 0.85
-12.239172 28.150096 698.000000 0.85
-12.274242 29.458180 700.000000 0.85
-12.274242 30.685604 700.000000 0.85
-12.274242 31.913028 700.000000 0.85
-12.291776 33.187796 701.000000 0.85
-12.291776 34.416974 701.000000 0.85
-12.326846 35.747852 703.000000 0.85
-12.344380 37.033140 704.000000 0.85
-12.379449 38.376293 706.000000 0.85
-12.379449 39.614238 706.000000 0.85
-12.396984 40.910047 707.000000 0.85
-12.414519 42.209363 708.000000 0.85
-12.449588 43.573558 710.000000 0.85
-12.467123 44.881641 711.000000 0.85
-12.519726 46.322988 714.000000 0.85
-12.554796 47.708224 716.000000 0.85
-12.572330 49.032088 717.000000 0.85
-12.572330 50.289321 717.000000 0.85
-12.607400 51.690338 719.000000 0.85
-12.624934 53.024724 720.000000 0.85
-12.660004 54.438015 722.000000 0.85
-12.677538 55.781168 723.000000 0.85
-12.712607 57.206733 725.000000 0.85
-17.769595 -39.487989 1126.000000 0.85
-11.709627 -24.720323 742.000000 0.85
-11.094161 -20.955637 703.000000 0.85
-11.094161 -19.722953 703.000000 0.85
-11.094161 -18.490268 703.000000 0.85
-11.062599 -17.208487 701.000000 0.85
-11.046817 -15.956514 700.000000 0.85
-11.046817 -14.729090 700.000000 0.85
-11.015255 -13.463090 698.000000 0.85
-11.015255 -12.239172 698.000000 0.85
-11.015255 -11.015255 698.000000 0.85
-10.999474 -9.777310 697.000000 0.85
-10.983693 -8.542872 696.000000 0.85
-10.983693 -7.322462 696.000000 0.85
-10.952130 -6.084517 694.000000 0.85
-10.952130 -4.867614 694.000000 0.85
-10.952130 -3.650710 694.000000 0.85
-10.936349 -2.430300 693.000000 0.85
-10.936349 -1.215150 693.000000 0.85
-10.936349 0.000000 693.000000 0.85
-10.936349 1.215150 693.000000 0.85
-10.936349 2.430300 693.000000 0.85
-10.936349 4.860600 693.000000 0.85
-10.952130 6.084517 694.000000 0.85
-10.952130 9.735227 694.000000 0.85
-10.952130 10.952130 694.000000 0.85
-10.983693 12.204103 696.000000 0.85
-10.952130 13.385937 694.000000 0.85
-10.952130 14.602841 694.000000 0.85
-10.983693 15.865334 696.000000 0.85
-10.983693 17.085744 696.000000 0.85
-10.983693 18.306155 696.000000 0.85
-10.983693 19.526565 696.000000 0.85
-10.983693 20.746975 696.000000 0.85
-10.983693 21.967386 696.000000 0.85
-10.999474 23.221112 697.000000 0.85
-11.015255 24.478345 698.000000 0.85
-11.015255 25.702262 698.000000 0.85
-11.015255 26.926179 698.000000 0.85
-11.015255 28.150096 698.000000 0.85
-11.015255 29.374014 698.000000 0.85
-11.046817 30.685604 700.000000 0.85
-11.046817 31.913028 700.000000 0.85
-11.062599 33.187796 701.000000 0.85
-11.094161 34.515167 703.000000 0.85
-11.094161 35.747852 703.000000 0.85
-11.109942 37.033140 704.000000 0.85
-11.141504 38.376293 706.000000 0.85
-11.141504 39.614238 706.000000 0.85
-11.157286 40.910047 707.000000 0.85
-11.173067 42.209363 708.000000 0.85
-11.204629 43.573558 710.000000 0.85
-11.220410 44.881641 711.000000 0.85
-11.267754 46.322988 714.000000 0.85
-11.299316 47.708224 716.000000 0.85
-11.315097 49.032088 717.000000 0.85
-11.315097 50.289321 717.000000 0.85
-11.346660 51.690338 719.000000 0.85
-11.362441 53.024724 720.000000 0.85
-11.394003 54.438015 722.000000 0.85
-11.409784 55.781168 723.000000 0.85
-11.441347 57.206733 725.000000 0.85
-15.795196 -39.487989 1126.000000 0.85
-10.408557 -24.720323 742.000000 0.85
-10.408557 -23.419253 742.000000 0.85
-10.408557 -22.118183 742.000000 0.85
-9.861476 -19.722953 703.000000 0.85
-9.861476 -18.490268 703.000000 0.85
-9.833421 -17.208487 701.000000 0.85
-9.819393 -15.956514 700.000000 0.85
-9.819393 -14.729090 700.000000 0.85
-9.791338 -13.463090 698.000000 0.85
-9.791338 -12.239172 698.000000 0.85
-9.791338 -11.015255 698.000000 0.85
-9.777310 -9.777310 697.000000 0.85
-9.763282 -8.542872 696.000000 0.85
-9.763282 -7.322462 696.000000 0.85
-9.735227 -6.084517 694.000000 0.85
-9.735227 -4.867614 694.000000 0.85
-9.735227 -3.650710 694.000000 0.85
-9.735227 -2.433807 694.000000 0.85
-9.721199 -1.215150 693.000000 0.85
-9.721199 0.000000 693.000000 0.85
-9.721199 1.215150 693.000000 0.85
-9.721199 2.430300 693.000000 0.85
-9.735227 9.735227 694.000000 0.85
-9.735227 10.952130 694.000000 0.85
-9.763282 12.204103 696.000000 0.85
-9.735227 13.385937 694.000000 0.85
-9.735227 14.602841 694.000000 0.85
-9.763282 15.865334 696.000000 0.85
-9.763282 17.085744 696.000000 0.85
-9.763282 18.306155 696.000000 0.85
-9.763282 19.526565 696.000000 0.85
-9.763282 20.746975 696.000000 0.85
-9.763282 21.967386 696.000000 0.85
-9.777310 23.221112 697.000000 0.85
-9.791338 24.478345 698.000000 0.85
-9.791338 25.702262 698.000000 0.85
-9.791338 26.926179 698.000000 0.85
-9.791338 28.150096 698.000000 0.85
-9.791338 29.374014 698.000000 0.85
-9.819393 30.685604 700.000000 0.85
-9.819393 31.913028 700.000000 0.85
-9.833421 33.187796 701.000000 0.85
-9.861476 34.515167 703.000000 0.85
-9.875504 35.798702 704.000000 0.85
-9.875504 37.033140 704.000000 0.85
-9.903560 38.376293 706.000000 0.85
-9.903560 39.614238 706.000000 0.85
-9.917587 40.910047 707.000000 0.85
-9.931615 42.209363 708.000000 0.85
-9.973698 43.634929 711.000000 0.85
-10.001753 45.007891 713.000000 0.85
-10.015781 46.322988 714.000000 0.85
-10.015781 47.574961 714.000000 0.85
-10.043837 48.963703 716.000000 0.85
-10.057864 50.289321 717.000000 0.85
-10.085920 51.690338 719.000000 0.85
-10.099947 53.024724 720.000000 0.85
-10.128003 54.438015 722.000000 0.85
-10.142031 55.781168 723.000000 0.85
-13.820796 -41.462388 1126.000000 0.85
-13.820796 -39.487989 1126.000000 0.85
-9.107487 -24.720323 742.000000 0.85
-9.107487 -23.419253 742.000000 0.85
-9.107487 -22.118183 742.000000 0.85
-8.641066 -19.751008 704.000000 0.85
-8.628792 -18.490268 703.000000 0.85
-8.604243 -17.208487 701.000000 0.85
-8.591969 -15.956514 700.000000 0.85
-8.591969 -14.729090 700.000000 0.85
-8.591969 -13.501666 700.000000 0.85
-8.567421 -12.239172 698.000000 0.85
-8.567421 -11.015255 698.000000 0.85
-8.555146 -9.777310 697.000000 0.85
-8.542872 -8.542872 696.000000 0.85
