ply
format ascii 1.0
comment
element vertex 1298
property float32 x
property float32 y
property float32 z
property float intensity
element face 0
property list uchar int vertex_indices
end_header
-7.965983 67.141855 649.000000 0.85
-7.965983 68.279853 649.000000 0.85
-7.965983 69.417850 649.000000 0.85
-7.859022 44.534456 747.000000 0.85
-6.933193 40.443626 659.000000 0.85
-6.933193 41.599158 659.000000 0.85
-6.912151 42.624934 657.000000 0.85
-6.912151 43.776959 657.000000 0.85
-6.891110 44.792215 655.000000 0.85
-6.891110 45.940733 655.000000 0.85
-6.891110 47.089251 655.000000 0.85
-6.880589 48.164124 654.000000 0.85
-6.870068 49.235490 653.000000 0.85
-6.859548 50.303349 652.000000 0.85
-6.838506 51.288795 650.000000 0.85
-6.838506 52.428546 650.000000 0.85
-6.827985 53.485885 649.000000 0.85
-6.827985 54.623882 649.000000 0.85
-6.827985 55.761880 649.000000 0.85
-6.817464 56.812204 648.000000 0.85
-6.817464 57.948448 648.000000 0.85
-6.817464 59.084692 648.000000 0.85
-6.817464 60.220936 648.000000 0.85
-6.817464 61.357180 648.000000 0.85
-6.817464 62.493425 648.000000 0.85
-6.817464 63.629669 648.000000 0.85
-6.827985 64.865860 649.000000 0.85
-6.827985 66.003858 649.000000 0.85
-6.838506 67.245309 650.000000 0.85
-6.838506 68.385060 650.000000 0.85
-6.838506 69.524812 650.000000 0.85
-6.549185 44.534456 747.000000 0.85
-6.549185 45.844292 747.000000 0.85
-5.777661 41.599158 659.000000 0.85
-5.760126 42.624934 657.000000 0.85
-5.760126 43.776959 657.000000 0.85
-5.742592 44.792215 655.000000 0.85
-5.742592 45.940733 655.000000 0.85
-5.742592 47.089251 655.000000 0.85
-5.733824 48.164124 654.000000 0.85
-5.725057 49.235490 653.000000 0.85
-5.716290 50.303349 652.000000 0.85
-5.698755 51.288795 650.000000 0.85
-5.698755 52.428546 650.000000 0.85
-5.689988 53.485885 649.000000 0.85
-5.689988 54.623882 649.000000 0.85
-5.689988 55.761880 649.000000 0.85
-5.681220 56.812204 648.000000 0.85
-5.681220 57.948448 648.000000 0.85
-5.681220 59.084692 648.000000 0.85
-5.681220 60.220936 648.000000 0.85
-5.681220 61.357180 648.000000 0.85
-5.681220 62.493425 648.000000 0.85
-5.681220 63.629669 648.000000 0.85
-5.689988 64.865860 649.000000 0.85
-5.689988 66.003858 649.000000 0.85
-5.698755 67.245309 650.000000 0.85
-5.698755 68.385060 650.000000 0.85
-5.698755 69.524812 650.000000 0.85
-5.239348 44.534456 747.000000 0.85
-5.239348 45.844292 747.000000 0.85
-4.622129 41.599158 659.000000 0.85
-4.608101 42.624934 657.000000 0.85
-4.608101 43.776959 657.000000 0.85
-4.594073 44.792215 655.000000 0.85
-4.594073 45.940733 655.000000 0.85
-4.594073 47.089251 655.000000 0.85
-4.587059 48.164124 654.000000 0.85
-4.580046 49.235490 653.000000 0.85
-4.573032 50.303349 652.000000 0.85
-4.573032 51.446607 652.000000 0.85
-4.559004 52.428546 650.000000 0.85
-4.551990 53.485885 649.000000 0.85
-4.551990 54.623882 649.000000 0.85
-4.551990 55.761880 649.000000 0.85
-4.544976 56.812204 648.000000 0.85
-4.544976 57.948448 648.000000 0.85
-4.544976 59.084692 648.000000 0.85
-4.544976 60.220936 648.000000 0.85
-4.544976 61.357180 648.000000 0.85
-4.551990 62.589865 649.000000 0.85
-4.551990 63.727863 649.000000 0.85
-4.551990 64.865860 649.000000 0.85
-4.551990 66.003858 649.000000 0.85
-4.559004 67.245309 650.000000 0.85
-4.559004 68.385060 650.000000 0.85
-4.559004 69.524812 650.000000 0.85
-3.929511 44.534456 747.000000 0.85
-3.482378 40.627740 662.000000 0.85
-3.466597 41.599158 659.000000 0.85
-3.456076 42.624934 657.000000 0.85
-3.456076 43.776959 657.000000 0.85
-3.445555 44.792215 655.000000 0.85
-3.445555 45.940733 655.000000 0.85
-3.445555 47.089251 655.000000 0.85
-3.440295 48.164124 654.000000 0.85
-3.435034 49.235490 653.000000 0.85
-3.429774 50.303349 652.000000 0.85
-3.429774 51.446607 652.000000 0.85
-3.419253 52.428546 650.000000 0.85
-3.413993 53.485885 649.000000 0.85
-3.413993 54.623882 649.000000 0.85
-3.413993 55.761880 649.000000 0.85
-3.413993 56.899877 649.000000 0.85
-3.413993 58.037875 649.000000 0.85
-3.413993 59.175872 649.000000 0.85
-3.413993 60.313870 649.000000 0.85
-3.413993 61.451867 649.000000 0.85
-3.413993 62.589865 649.000000 0.85
-3.413993 63.727863 649.000000 0.85
-3.413993 64.865860 649.000000 0.85
-3.413993 66.003858 649.000000 0.85
-3.419253 67.245309 650.000000 0.85
-3.419253 68.385060 650.000000 0.85
-3.419253 69.524812 650.000000 0.85
-2.619674 44.534456 747.000000 0.85
-2.321585 40.627740 662.000000 0.85
-2.307557 41.536034 658.000000 0.85
-2.304050 42.624934 657.000000 0.85
-2.297037 43.643696 655.000000 0.85
-2.297037 44.792215 655.000000 0.85
-2.297037 45.940733 655.000000 0.85
-2.293530 47.017359 654.000000 0.85
-2.290023 48.090479 653.000000 0.85
-2.290023 49.235490 653.000000 0.85
-2.286516 50.303349 652.000000 0.85
-2.286516 51.446607 652.000000 0.85
-2.279502 52.428546 650.000000 0.85
-2.275995 53.485885 649.000000 0.85
-2.275995 54.623882 649.000000 0.85
-2.275995 55.761880 649.000000 0.85
-2.275995 56.899877 649.000000 0.85
-2.275995 58.037875 649.000000 0.85
-2.275995 59.175872 649.000000 0.85
-2.275995 60.313870 649.000000 0.85
-2.275995 61.451867 649.000000 0.85
-2.275995 62.589865 649.000000 0.85
-2.275995 63.727863 649.000000 0.85
-2.275995 64.865860 649.000000 0.85
-2.275995 66.003858 649.000000 0.85
-2.279502 67.245309 650.000000 0.85
-2.279502 68.385060 650.000000 0.85
-2.279502 69.524812 650.000000 0.85
-1.309837 44.534456 747.000000 0.85
-1.155532 40.443626 659.000000 0.85
-1.153779 41.536034 658.000000 0.85
-1.152025 42.624934 657.000000 0.85
-1.148518 43.643696 655.000000 0.85
-1.148518 44.792215 655.000000 0.85
-1.148518 45.940733 655.000000 0.85
-1.146765 47.017359 654.000000 0.85
-1.145011 48.090479 653.000000 0.85
-1.145011 49.235490 653.000000 0.85
-1.143258 50.303349 652.000000 0.85
-1.143258 51.446607 652.000000 0.85
-1.143258 52.589865 652.000000 0.85
-1.139751 53.568297 650.000000 0.85
-1.137998 54.623882 649.000000 0.85
-1.137998 55.761880 649.000000 0.85
-1.137998 56.899877 649.000000 0.85
-1.137998 58.037875 649.000000 0.85
-1.137998 59.175872 649.000000 0.85
-1.137998 60.313870 649.000000 0.85
-1.137998 61.451867 649.000000 0.85
-1.137998 62.589865 649.000000 0.85
-1.137998 63.727863 649.000000 0.85
-1.137998 64.865860 649.000000 0.85
-1.139751 66.105558 650.000000 0.85
-1.139751 67.245309 650.000000 0.85
-1.139751 68.385060 650.000000 0.85
-1.139751 69.524812 650.000000 0.85
0.000000 44.474838 746.000000 0.85
0.000000 40.443626 659.000000 0.85
0.000000 41.472909 657.000000 0.85
0.000000 42.495178 655.000000 0.85
0.000000 43.643696 655.000000 0.85
0.000000 44.792215 655.000000 0.85
0.000000 45.870594 654.000000 0.85
0.000000 47.017359 654.000000 0.85
0.000000 48.090479 653.000000 0.85
0.000000 49.235490 653.000000 0.85
0.000000 50.380501 653.000000 0.85
0.000000 51.446607 652.000000 0.85
0.000000 52.589865 652.000000 0.85
0.000000 53.568297 650.000000 0.85
0.000000 54.708048 650.000000 0.85
0.000000 55.761880 649.000000 0.85
0.000000 56.899877 649.000000 0.85
0.000000 58.037875 649.000000 0.85
0.000000 59.175872 649.000000 0.85
0.000000 60.313870 649.000000 0.85
0.000000 61.451867 649.000000 0.85
0.000000 62.589865 649.000000 0.85
0.000000 63.727863 649.000000 0.85
0.000000 64.865860 649.000000 0.85
0.000000 66.105558 650.000000 0.85
0.000000 67.245309 650.000000 0.85
0.000000 68.385060 650.000000 0.85
0.000000 69.524812 650.000000 0.85
1.308083 43.166754 746.000000 0.85
1.308083 44.474838 746.000000 0.85
1.148518 40.198141 655.000000 0.85
1.148518 41.346660 655.000000 0.85
1.148518 42.495178 655.000000 0.85
1.148518 43.643696 655.000000 0.85
1.148518 44.792215 655.000000 0.85
1.146765 45.870594 654.000000 0.85
1.146765 47.017359 654.000000 0.85
1.146765 48.164124 654.000000 0.85
1.145011 49.235490 653.000000 0.85
1.145011 50.380501 653.000000 0.85
1.143258 51.446607 652.000000 0.85
1.143258 52.589865 652.000000 0.85
1.139751 53.568297 650.000000 0.85
1.139751 54.708048 650.000000 0.85
1.139751 55.847799 650.000000 0.85
1.137998 56.899877 649.000000 0.85
1.137998 58.037875 649.000000 0.85
1.137998 59.175872 649.000000 0.85
1.137998 60.313870 649.000000 0.85
1.137998 61.451867 649.000000 0.85
1.139751 62.686305 650.000000 0.85
1.139751 63.826056 650.000000 0.85
1.139751 64.965807 650.000000 0.85
1.139751 66.105558 650.000000 0.85
1.143258 67.452218 652.000000 0.85
1.143258 68.595476 652.000000 0.85
1.143258 69.738734 652.000000 0.85
2.616167 43.166754 746.000000 0.85
2.318078 39.407329 661.000000 0.85
2.297037 40.198141 655.000000 0.85
2.297037 41.346660 655.000000 0.85
2.297037 42.495178 655.000000 0.85
2.297037 43.643696 655.000000 0.85
2.297037 44.792215 655.000000 0.85
2.297037 45.940733 655.000000 0.85
2.293530 47.017359 654.000000 0.85
2.293530 48.164124 654.000000 0.85
2.293530 49.310889 654.000000 0.85
2.290023 50.380501 653.000000 0.85
2.290023 51.525513 653.000000 0.85
2.286516 52.589865 652.000000 0.85
2.286516 53.733123 652.000000 0.85
2.279502 54.708048 650.000000 0.85
2.279502 55.847799 650.000000 0.85
2.275995 56.899877 649.000000 0.85
2.275995 58.037875 649.000000 0.85
2.275995 59.175872 649.000000 0.85
2.275995 60.313870 649.000000 0.85
2.279502 61.546554 650.000000 0.85
2.279502 62.686305 650.000000 0.85
2.279502 63.826056 650.000000 0.85
2.279502 64.965807 650.000000 0.85
2.279502 66.105558 650.000000 0.85
2.286516 67.452218 652.000000 0.85
2.286516 68.595476 652.000000 0.85
2.286516 69.738734 652.000000 0.85
3.940032 43.340347 749.000000 0.85
3.477117 39.407329 661.000000 0.85
3.466597 40.443626 659.000000 0.85
3.466597 41.599158 659.000000 0.85
3.456076 42.624934 657.000000 0.85
3.445555 43.643696 655.000000 0.85
3.445555 44.792215 655.000000 0.85
3.445555 45.940733 655.000000 0.85
3.440295 47.017359 654.000000 0.85
3.440295 48.164124 654.000000 0.85
3.440295 49.310889 654.000000 0.85
3.435034 50.380501 653.000000 0.85
3.435034 51.525513 653.000000 0.85
3.429774 52.589865 652.000000 0.85
3.429774 53.733123 652.000000 0.85
3.419253 54.708048 650.000000 0.85
3.419253 55.847799 650.000000 0.85
3.419253 56.987550 650.000000 0.85
3.419253 58.127301 650.000000 0.85
3.419253 59.267052 650.000000 0.85
3.419253 60.406803 650.000000 0.85
3.419253 61.546554 650.000000 0.85
3.429774 62.879186 652.000000 0.85
3.429774 64.022444 652.000000 0.85
3.429774 65.165702 652.000000 0.85
3.435034 66.410661 653.000000 0.85
3.429774 67.452218 652.000000 0.85
3.429774 68.595476 652.000000 0.85
3.419253 69.524812 650.000000 0.85
5.260389 42.083114 750.000000 0.85
5.253375 43.340347 749.000000 0.85
4.636156 39.407329 661.000000 0.85
4.636156 40.566369 661.000000 0.85
4.636156 41.725408 661.000000 0.85
4.615115 42.689812 658.000000 0.85
4.608101 43.776959 657.000000 0.85
4.594073 44.792215 655.000000 0.85
4.594073 45.940733 655.000000 0.85
4.587059 47.017359 654.000000 0.85
4.587059 48.164124 654.000000 0.85
4.587059 49.310889 654.000000 0.85
4.587059 50.457654 654.000000 0.85
4.580046 51.525513 653.000000 0.85
4.573032 52.589865 652.000000 0.85
4.573032 53.733123 652.000000 0.85
4.559004 54.708048 650.000000 0.85
4.559004 55.847799 650.000000 0.85
4.559004 56.987550 650.000000 0.85
4.559004 58.127301 650.000000 0.85
4.559004 59.267052 650.000000 0.85
4.559004 60.406803 650.000000 0.85
4.559004 61.546554 650.000000 0.85
4.573032 62.879186 652.000000 0.85
4.573032 64.022444 652.000000 0.85
4.580046 65.265650 653.000000 0.85
4.580046 66.410661 653.000000 0.85
4.573032 67.452218 652.000000 0.85
4.573032 68.595476 652.000000 0.85
4.559004 69.524812 650.000000 0.85
6.575487 42.083114 750.000000 0.85
5.821497 38.421883 664.000000 0.85
5.821497 39.586183 664.000000 0.85
5.795196 40.566369 661.000000 0.85
5.795196 41.725408 661.000000 0.85
5.795196 42.884447 661.000000 0.85
5.760126 43.776959 657.000000 0.85
5.742592 44.792215 655.000000 0.85
5.742592 45.940733 655.000000 0.85
5.742592 47.089251 655.000000 0.85
5.733824 48.164124 654.000000 0.85
5.733824 49.310889 654.000000 0.85
5.733824 50.457654 654.000000 0.85
5.725057 51.525513 653.000000 0.85
5.725057 52.670524 653.000000 0.85
5.716290 53.733123 652.000000 0.85
5.716290 54.876381 652.000000 0.85
5.698755 55.847799 650.000000 0.85
5.698755 56.987550 650.000000 0.85
5.698755 58.127301 650.000000 0.85
5.698755 59.267052 650.000000 0.85
5.698755 60.406803 650.000000 0.85
5.698755 61.546554 650.000000 0.85
5.716290 62.879186 652.000000 0.85
5.725057 64.120638 653.000000 0.85
5.725057 65.265650 653.000000 0.85
5.725057 66.410661 653.000000 0.85
5.725057 67.555672 653.000000 0.85
5.725057 68.700684 653.000000 0.85
7.911625 40.876732 752.000000 0.85
7.890584 42.083114 750.000000 0.85
6.985797 38.421883 664.000000 0.85
6.985797 39.586183 664.000000 0.85
6.954235 40.566369 661.000000 0.85
6.954235 41.725408 661.000000 0.85
6.954235 42.884447 661.000000 0.85
6.922672 43.843591 658.000000 0.85
6.912151 44.928985 657.000000 0.85
6.891110 45.940733 655.000000 0.85
6.891110 47.089251 655.000000 0.85
6.880589 48.164124 654.000000 0.85
6.880589 49.310889 654.000000 0.85
6.880589 50.457654 654.000000 0.85
6.870068 51.525513 653.000000 0.85
6.859548 52.589865 652.000000 0.85
6.859548 53.733123 652.000000 0.85
6.859548 54.876381 652.000000 0.85
6.838506 55.847799 650.000000 0.85
6.838506 56.987550 650.000000 0.85
6.838506 58.127301 650.000000 0.85
6.838506 59.267052 650.000000 0.85
6.838506 60.406803 650.000000 0.85
6.838506 61.546554 650.000000 0.85
6.859548 62.879186 652.000000 0.85
6.870068 64.120638 653.000000 0.85
6.870068 65.265650 653.000000 0.85
6.880589 66.512362 654.000000 0.85
6.870068 67.555672 653.000000 0.85
9.254778 39.663335 754.000000 0.85
9.230230 40.876732 752.000000 0.85
8.150096 37.257584 664.000000 0.85
8.150096 38.421883 664.000000 0.85
8.137822 39.526565 663.000000 0.85
8.125548 40.627740 662.000000 0.85
8.125548 41.788532 662.000000 0.85
8.125548 42.949325 662.000000 0.85
8.088725 43.910223 659.000000 0.85
8.064177 44.928985 657.000000 0.85
8.064177 46.081010 657.000000 0.85
8.039628 47.089251 655.000000 0.85
8.027354 48.164124 654.000000 0.85
8.027354 49.310889 654.000000 0.85
8.027354 50.457654 654.000000 0.85
8.015080 51.525513 653.000000 0.85
8.002806 52.589865 652.000000 0.85
8.002806 53.733123 652.000000 0.85
8.002806 54.876381 652.000000 0.85
8.002806 56.019639 652.000000 0.85
7.978257 56.987550 650.000000 0.85
7.978257 58.127301 650.000000 0.85
7.978257 59.267052 650.000000 0.85
7.978257 60.406803 650.000000 0.85
8.002806 61.735928 652.000000 0.85
8.015080 62.975627 653.000000 0.85
8.015080 64.120638 653.000000 0.85
8.027354 65.365597 654.000000 0.85
8.027354 66.512362 654.000000 0.85
8.027354 67.659127 654.000000 0.85
10.576889 39.663335 754.000000 0.85
9.286341 35.984570 662.000000 0.85
9.286341 37.145362 662.000000 0.85
9.286341 38.306155 662.000000 0.85
9.286341 39.466947 662.000000 0.85
9.286341 40.627740 662.000000 0.85
9.286341 41.788532 662.000000 0.85
9.286341 42.949325 662.000000 0.85
9.244257 43.910223 659.000000 0.85
9.216202 44.928985 657.000000 0.85
9.216202 46.081010 657.000000 0.85
9.188147 47.089251 655.000000 0.85
9.174119 48.164124 654.000000 0.85
9.174119 49.310889 654.000000 0.85
9.174119 50.457654 654.000000 0.85
9.160091 51.525513 653.000000 0.85
9.160091 52.670524 653.000000 0.85
9.146063 53.733123 652.000000 0.85
9.146063 54.876381 652.000000 0.85
9.146063 56.019639 652.000000 0.85
9.146063 57.162897 652.000000 0.85
9.146063 58.306155 652.000000 0.85
9.146063 59.449413 652.000000 0.85
9.146063 60.592671 652.000000 0.85
9.146063 61.735928 652.000000 0.85
9.174119 63.072067 654.000000 0.85
9.174119 64.218832 654.000000 0.85
9.174119 65.365597 654.000000 0.85
9.174119 66.512362 654.000000 0.85
9.174119 67.659127 654.000000 0.85
11.977906 38.595476 759.000000 0.85
11.899001 39.663335 754.000000 0.85
10.447133 35.984570 662.000000 0.85
10.447133 37.145362 662.000000 0.85
10.447133 38.306155 662.000000 0.85
10.447133 39.466947 662.000000 0.85
10.447133 40.627740 662.000000 0.85
10.447133 41.788532 662.000000 0.85
10.447133 42.949325 662.000000 0.85
10.431352 44.043486 661.000000 0.85
10.384008 44.997370 658.000000 0.85
10.368227 46.081010 657.000000 0.85
10.336665 47.089251 655.000000 0.85
10.336665 48.237770 655.000000 0.85
10.320884 49.310889 654.000000 0.85
10.320884 50.457654 654.000000 0.85
10.305103 51.525513 653.000000 0.85
10.305103 52.670524 653.000000 0.85
10.305103 53.815536 653.000000 0.85
10.305103 54.960547 653.000000 0.85
10.289321 56.019639 652.000000 0.85
10.289321 57.162897 652.000000 0.85
10.289321 58.306155 652.000000 0.85
10.305103 59.540593 653.000000 0.85
10.305103 60.685604 653.000000 0.85
10.305103 61.830615 653.000000 0.85
10.320884 63.072067 654.000000 0.85
10.320884 64.218832 654.000000 0.85
10.320884 65.365597 654.000000 0.85
10.336665 66.614063 655.000000 0.85
13.343854 37.362792 761.000000 0.85
13.343854 38.697177 761.000000 0.85
11.783272 35.349816 672.000000 0.85
11.625460 36.038927 663.000000 0.85
11.625460 37.201473 663.000000 0.85
11.625460 38.364019 663.000000 0.85
11.607926 39.466947 662.000000 0.85
11.607926 40.627740 662.000000 0.85
11.607926 41.788532 662.000000 0.85
11.607926 42.949325 662.000000 0.85
11.590391 44.043486 661.000000 0.85
11.537787 44.997370 658.000000 0.85
11.520252 46.081010 657.000000 0.85
11.485183 47.089251 655.000000 0.85
11.485183 48.237770 655.000000 0.85
11.467649 49.310889 654.000000 0.85
11.467649 50.457654 654.000000 0.85
11.450114 51.525513 653.000000 0.85
11.450114 52.670524 653.000000 0.85
11.450114 53.815536 653.000000 0.85
11.450114 54.960547 653.000000 0.85
11.450114 56.105558 653.000000 0.85
11.450114 57.250570 653.000000 0.85
11.467649 58.485008 654.000000 0.85
11.467649 59.631773 654.000000 0.85
11.467649 60.778538 654.000000 0.85
11.467649 61.925302 654.000000 0.85
11.467649 63.072067 654.000000 0.85
11.467649 64.218832 654.000000 0.85
11.485183 65.465544 655.000000 0.85
11.485183 66.614063 655.000000 0.85
14.736104 36.170437 764.000000 0.85
12.961599 32.993161 672.000000 0.85
12.961599 34.171489 672.000000 0.85
12.961599 35.349816 672.000000 0.85
12.884447 36.310714 668.000000 0.85
12.807294 37.257584 664.000000 0.85
12.788006 38.364019 663.000000 0.85
12.788006 39.526565 663.000000 0.85
12.768718 40.627740 662.000000 0.85
12.768718 41.788532 662.000000 0.85
12.749430 42.884447 661.000000 0.85
12.749430 44.043486 661.000000 0.85
12.710854 45.065755 659.000000 0.85
12.672278 46.081010 657.000000 0.85
12.633702 47.089251 655.000000 0.85
12.633702 48.237770 655.000000 0.85
12.614413 49.310889 654.000000 0.85
12.614413 50.457654 654.000000 0.85
12.595125 51.525513 653.000000 0.85
12.595125 52.670524 653.000000 0.85
12.595125 53.815536 653.000000 0.85
12.595125 54.960547 653.000000 0.85
12.614413 56.191478 654.000000 0.85
12.614413 57.338243 654.000000 0.85
12.614413 58.485008 654.000000 0.85
12.614413 59.631773 654.000000 0.85
12.614413 60.778538 654.000000 0.85
12.614413 61.925302 654.000000 0.85
12.633702 63.168508 655.000000 0.85
12.633702 64.317026 655.000000 0.85
12.633702 65.465544 655.000000 0.85
16.075750 36.170437 764.000000 0.85
14.139926 32.993161 672.000000 0.85
14.118885 34.120638 671.000000 0.85
14.118885 35.297212 671.000000 0.85
14.055760 36.310714 668.000000 0.85
13.971594 37.257584 664.000000 0.85
13.971594 38.421883 664.000000 0.85
13.950552 39.526565 663.000000 0.85
13.929511 40.627740 662.000000 0.85
13.929511 41.788532 662.000000 0.85
13.908469 42.884447 661.000000 0.85
13.908469 44.043486 661.000000 0.85
13.845345 44.997370 658.000000 0.85
13.824303 46.081010 657.000000 0.85
13.782220 47.089251 655.000000 0.85
13.782220 48.237770 655.000000 0.85
13.761178 49.310889 654.000000 0.85
13.761178 50.457654 654.000000 0.85
13.761178 51.604419 654.000000 0.85
13.761178 52.751184 654.000000 0.85
13.761178 53.897948 654.000000 0.85
13.761178 55.044713 654.000000 0.85
13.761178 56.191478 654.000000 0.85
13.761178 57.338243 654.000000 0.85
13.761178 58.485008 654.000000 0.85
13.761178 59.631773 654.000000 0.85
13.761178 60.778538 654.000000 0.85
13.782220 62.019989 655.000000 0.85
13.782220 63.168508 655.000000 0.85
13.782220 64.317026 655.000000 0.85
13.782220 65.465544 655.000000 0.85
17.415395 36.170437 764.000000 0.85
15.318254 32.993161 672.000000 0.85
15.295459 34.120638 671.000000 0.85
15.295459 35.297212 671.000000 0.85
15.227073 36.310714 668.000000 0.85
15.135893 37.257584 664.000000 0.85
15.135893 38.421883 664.000000 0.85
15.135893 39.586183 664.000000 0.85
15.113098 40.689111 663.000000 0.85
15.090303 41.788532 662.000000 0.85
15.090303 42.949325 662.000000 0.85
15.067508 44.043486 661.000000 0.85
14.999123 44.997370 658.000000 0.85
14.976328 46.081010 657.000000 0.85
14.930738 47.089251 655.000000 0.85
14.930738 48.237770 655.000000 0.85
14.930738 49.386288 655.000000 0.85
14.907943 50.457654 654.000000 0.85
14.907943 51.604419 654.000000 0.85
14.907943 52.751184 654.000000 0.85
14.907943 53.897948 654.000000 0.85
14.907943 55.044713 654.000000 0.85
14.907943 56.191478 654.000000 0.85
14.907943 57.338243 654.000000 0.85
14.907943 58.485008 654.000000 0.85
14.907943 59.631773 654.000000 0.85
14.907943 60.778538 654.000000 0.85
14.930738 62.019989 655.000000 0.85
14.976328 63.361389 657.000000 0.85
14.976328 64.513414 657.000000 0.85
18.804138 36.265124 766.000000 0.85
16.496581 32.993161 672.000000 0.85
16.472032 34.120638 671.000000 0.85
16.472032 35.297212 671.000000 0.85
16.373838 36.256356 667.000000 0.85
16.349290 37.369805 666.000000 0.85
16.349290 38.537612 666.000000 0.85
16.300193 39.586183 664.000000 0.85
16.300193 40.750482 664.000000 0.85
16.275644 41.851657 663.000000 0.85
16.251096 42.949325 662.000000 0.85
16.226547 44.043486 661.000000 0.85
16.177450 45.065755 659.000000 0.85
16.128353 46.081010 657.000000 0.85
16.079257 47.089251 655.000000 0.85
16.079257 48.237770 655.000000 0.85
16.079257 49.386288 655.000000 0.85
16.054708 50.457654 654.000000 0.85
16.054708 51.604419 654.000000 0.85
16.054708 52.751184 654.000000 0.85
16.054708 53.897948 654.000000 0.85
16.054708 55.044713 654.000000 0.85
16.054708 56.191478 654.000000 0.85
16.054708 57.338243 654.000000 0.85
16.054708 58.485008 654.000000 0.85
16.054708 59.631773 654.000000 0.85
16.079257 60.871471 655.000000 0.85
16.079257 62.019989 655.000000 0.85
16.128353 63.361389 657.000000 0.85
16.152902 64.611608 658.000000 0.85
20.147291 34.921971 766.000000 0.85
20.147291 36.265124 766.000000 0.85
17.753814 33.140452 675.000000 0.85
17.648606 34.120638 671.000000 0.85
17.648606 35.297212 671.000000 0.85
17.543398 36.256356 667.000000 0.85
17.517096 37.369805 666.000000 0.85
17.517096 38.537612 666.000000 0.85
17.517096 39.705418 666.000000 0.85
17.464492 40.750482 664.000000 0.85
17.464492 41.914782 664.000000 0.85
17.411888 42.949325 662.000000 0.85
17.385587 44.043486 661.000000 0.85
17.332983 45.065755 659.000000 0.85
17.306681 46.151149 658.000000 0.85
17.306681 47.304927 658.000000 0.85
17.280379 48.385060 657.000000 0.85
17.227775 49.386288 655.000000 0.85
17.227775 50.534806 655.000000 0.85
17.227775 51.683325 655.000000 0.85
17.227775 52.831843 655.000000 0.85
17.227775 53.980361 655.000000 0.85
17.227775 55.128880 655.000000 0.85
17.227775 56.277398 655.000000 0.85
17.227775 57.425916 655.000000 0.85
17.227775 58.574435 655.000000 0.85
17.227775 59.722953 655.000000 0.85
17.280379 61.057338 657.000000 0.85
17.306681 62.304050 658.000000 0.85
17.306681 63.457829 658.000000 0.85
17.332983 64.709802 659.000000 0.85
21.490444 34.921971 766.000000 0.85
18.937401 31.956865 675.000000 0.85
18.937401 33.140452 675.000000 0.85
18.909346 34.273190 674.000000 0.85
18.909346 35.455024 674.000000 0.85
18.797124 36.419428 670.000000 0.85
18.712958 37.425916 667.000000 0.85
18.684903 38.537612 666.000000 0.85
18.684903 39.705418 666.000000 0.85
18.628792 40.750482 664.000000 0.85
18.628792 41.914782 664.000000 0.85
18.600736 43.014203 663.000000 0.85
18.572681 44.110117 662.000000 0.85
18.544626 45.202525 661.000000 0.85
18.488515 46.221287 659.000000 0.85
18.460459 47.304927 658.000000 0.85
18.460459 48.458706 658.000000 0.85
18.432404 49.537086 657.000000 0.85
18.432404 50.689111 657.000000 0.85
18.432404 51.841136 657.000000 0.85
18.376293 52.831843 655.000000 0.85
18.376293 53.980361 655.000000 0.85
18.376293 55.128880 655.000000 0.85
18.376293 56.277398 655.000000 0.85
18.376293 57.425916 655.000000 0.85
18.376293 58.574435 655.000000 0.85
18.432404 59.905313 657.000000 0.85
18.460459 61.150272 658.000000 0.85
18.460459 62.304050 658.000000 0.85
18.488515 63.554270 659.000000 0.85
18.488515 64.709802 659.000000 0.85
22.863405 33.622655 767.000000 0.85
22.833596 34.921971 766.000000 0.85
20.091180 31.909521 674.000000 0.85
20.091180 33.091355 674.000000 0.85
20.091180 34.273190 674.000000 0.85
20.031562 35.349816 672.000000 0.85
19.971945 36.419428 670.000000 0.85
19.971945 37.594249 670.000000 0.85
19.912327 38.653340 668.000000 0.85
19.882518 39.765036 667.000000 0.85
19.852709 40.873225 666.000000 0.85
19.793091 41.914782 664.000000 0.85
19.793091 43.079081 664.000000 0.85
19.763282 44.176749 663.000000 0.85
19.703665 45.202525 661.000000 0.85
19.703665 46.361564 661.000000 0.85
19.644047 47.376819 659.000000 0.85
19.644047 48.532351 659.000000 0.85
19.614238 49.612485 658.000000 0.85
19.584429 50.689111 657.000000 0.85
19.584429 51.841136 657.000000 0.85
19.584429 52.993161 657.000000 0.85
19.524812 53.980361 655.000000 0.85
19.524812 55.128880 655.000000 0.85
19.524812 56.277398 655.000000 0.85
19.524812 57.425916 655.000000 0.85
19.524812 58.574435 655.000000 0.85
19.584429 59.905313 657.000000 0.85
19.614238 61.150272 658.000000 0.85
19.614238 62.304050 658.000000 0.85
19.644047 63.554270 659.000000 0.85
19.703665 64.906190 661.000000 0.85
24.208311 32.277749 767.000000 0.85
24.208311 33.622655 767.000000 0.85
21.209890 30.636507 672.000000 0.85
21.209890 31.814834 672.000000 0.85
21.209890 32.993161 672.000000 0.85
21.209890 34.171489 672.000000 0.85
21.178327 35.297212 671.000000 0.85
21.178327 36.473786 671.000000 0.85
21.146765 37.594249 670.000000 0.85
21.083640 38.653340 668.000000 0.85
21.052078 39.765036 667.000000 0.85
21.020516 40.873225 666.000000 0.85
20.957391 41.914782 664.000000 0.85
20.957391 43.079081 664.000000 0.85
20.925829 44.176749 663.000000 0.85
20.894266 45.270910 662.000000 0.85
20.862704 46.361564 661.000000 0.85
20.799579 47.376819 659.000000 0.85
20.799579 48.532351 659.000000 0.85
20.768017 49.612485 658.000000 0.85
20.768017 50.766263 658.000000 0.85
20.768017 51.920042 658.000000 0.85
20.736454 52.993161 657.000000 0.85
20.736454 54.145187 657.000000 0.85
20.736454 55.297212 657.000000 0.85
20.736454 56.449237 657.000000 0.85
20.736454 57.601262 657.000000 0.85
20.736454 58.753288 657.000000 0.85
20.768017 59.996493 658.000000 0.85
20.799579 61.243205 659.000000 0.85
20.799579 62.398738 659.000000 0.85
20.862704 63.747151 661.000000 0.85
25.619849 31.013502 769.000000 0.85
25.553218 32.277749 767.000000 0.85
25.519902 33.578818 766.000000 0.85
22.388217 30.636507 672.000000 0.85
22.354901 31.767491 671.000000 0.85
22.354901 32.944065 671.000000 0.85
22.354901 34.120638 671.000000 0.85
22.354901 35.297212 671.000000 0.85
22.354901 36.473786 671.000000 0.85
22.321585 37.594249 670.000000 0.85
22.254954 38.653340 668.000000 0.85
22.221638 39.765036 667.000000 0.85
22.221638 40.934596 667.000000 0.85
22.188322 42.041031 666.000000 0.85
22.121690 43.079081 664.000000 0.85
22.088375 44.176749 663.000000 0.85
22.055059 45.270910 662.000000 0.85
22.021743 46.361564 661.000000 0.85
22.021743 47.520603 661.000000 0.85
21.955111 48.532351 659.000000 0.85
21.955111 49.687884 659.000000 0.85
21.921796 50.766263 658.000000 0.85
21.921796 51.920042 658.000000 0.85
21.921796 53.073821 658.000000 0.85
21.921796 54.227600 658.000000 0.85
21.888480 55.297212 657.000000 0.85
21.888480 56.449237 657.000000 0.85
21.921796 57.688936 658.000000 0.85
21.921796 58.842714 658.000000 0.85
21.955111 60.087673 659.000000 0.85
21.955111 61.243205 659.000000 0.85
22.021743 62.588112 661.000000 0.85
22.021743 63.747151 661.000000 0.85
27.038401 29.742241 771.000000 0.85
27.038401 31.094161 771.000000 0.85
26.898124 32.277749 767.000000 0.85
26.863055 33.578818 766.000000 0.85
26.863055 34.921971 766.000000 0.85
23.531475 31.767491 671.000000 0.85
23.531475 32.944065 671.000000 0.85
23.531475 34.120638 671.000000 0.85
23.531475 35.297212 671.000000 0.85
23.531475 36.473786 671.000000 0.85
23.496405 37.594249 670.000000 0.85
23.496405 38.769069 670.000000 0.85
23.426267 39.824654 668.000000 0.85
23.391198 40.934596 667.000000 0.85
23.356128 42.041031 666.000000 0.85
23.285990 43.079081 664.000000 0.85
23.250921 44.176749 663.000000 0.85
23.215851 45.270910 662.000000 0.85
23.180782 46.361564 661.000000 0.85
23.180782 47.520603 661.000000 0.85
23.180782 48.679642 661.000000 0.85
23.110644 49.687884 659.000000 0.85
23.110644 50.843416 659.000000 0.85
23.110644 51.998948 659.000000 0.85
23.075574 53.073821 658.000000 0.85
23.075574 54.227600 658.000000 0.85
23.075574 55.381378 658.000000 0.85
23.075574 56.535157 658.000000 0.85
23.110644 57.776609 659.000000 0.85
23.110644 58.932141 659.000000 0.85
23.180782 60.270033 661.000000 0.85
23.180782 61.429072 661.000000 0.85
23.180782 62.588112 661.000000 0.85
28.316675 17.529371 769.000000 0.85
28.316675 18.877784 769.000000 0.85
28.316675 20.226197 769.000000 0.85
28.500789 21.714887 774.000000 0.85
28.500789 23.072067 774.000000 0.85
28.500789 24.429248 774.000000 0.85
28.500789 25.786428 774.000000 0.85
28.463966 27.108539 773.000000 0.85
28.463966 28.463966 773.000000 0.85
28.390321 29.742241 771.000000 0.85
28.390321 31.094161 771.000000 0.85
28.390321 32.446081 771.000000 0.85
28.390321 33.798001 771.000000 0.85
24.965807 30.910047 678.000000 0.85
24.818517 31.909521 674.000000 0.85
24.744871 32.993161 672.000000 0.85
24.744871 34.171489 672.000000 0.85
24.744871 35.349816 672.000000 0.85
24.708048 36.473786 671.000000 0.85
24.708048 37.650359 671.000000 0.85
24.671226 38.769069 670.000000 0.85
24.597580 39.824654 668.000000 0.85
24.560757 40.934596 667.000000 0.85
24.523935 42.041031 666.000000 0.85
24.523935 43.208837 666.000000 0.85
24.413467 44.176749 663.000000 0.85
24.376644 45.270910 662.000000 0.85
24.376644 46.431703 662.000000 0.85
24.339821 47.520603 661.000000 0.85
24.339821 48.679642 661.000000 0.85
24.339821 49.838681 661.000000 0.85
24.266176 50.843416 659.000000 0.85
24.266176 51.998948 659.000000 0.85
24.266176 53.154480 659.000000 0.85
24.266176 54.310012 659.000000 0.85
24.266176 55.465544 659.000000 0.85
24.266176 56.621077 659.000000 0.85
24.266176 57.776609 659.000000 0.85
24.266176 58.932141 659.000000 0.85
24.339821 60.270033 661.000000 0.85
24.339821 61.429072 661.000000 0.85
24.376644 62.682799 662.000000 0.85
29.742241 16.223041 771.000000 0.85
29.587936 17.483780 767.000000 0.85
29.587936 18.828687 767.000000 0.85
29.665089 20.226197 769.000000 0.85
29.742241 21.630721 771.000000 0.85
29.819393 23.042258 773.000000 0.85
29.819393 24.397685 773.000000 0.85
29.819393 25.753112 773.000000 0.85
29.819393 27.108539 773.000000 0.85
29.819393 28.463966 773.000000 0.85
29.742241 29.742241 771.000000 0.85
29.742241 31.094161 771.000000 0.85
29.742241 32.446081 771.000000 0.85
29.742241 33.798001 771.000000 0.85
26.154655 30.910047 678.000000 0.85
26.077503 32.004208 676.000000 0.85
26.038927 33.140452 675.000000 0.85
26.000351 34.273190 674.000000 0.85
26.000351 35.455024 674.000000 0.85
25.884622 36.473786 671.000000 0.85
25.884622 37.650359 671.000000 0.85
25.846046 38.769069 670.000000 0.85
25.846046 39.943889 670.000000 0.85
25.768894 40.995967 668.000000 0.85
25.730317 42.104156 667.000000 0.85
25.691741 43.208837 666.000000 0.85
25.614589 44.243381 664.000000 0.85
25.576013 45.339295 663.000000 0.85
25.537436 46.431703 662.000000 0.85
25.498860 47.520603 661.000000 0.85
25.498860 48.679642 661.000000 0.85
25.498860 49.838681 661.000000 0.85
25.498860 50.997720 661.000000 0.85
25.498860 52.156760 661.000000 0.85
25.421708 53.154480 659.000000 0.85
25.421708 54.310012 659.000000 0.85
25.421708 55.465544 659.000000 0.85
25.421708 56.621077 659.000000 0.85
25.498860 57.951955 661.000000 0.85
25.498860 59.110994 661.000000 0.85
25.537436 60.361213 662.000000 0.85
25.537436 61.522006 662.000000 0.85
25.576013 62.777486 663.000000 0.85
31.094161 14.871120 771.000000 0.85
31.013502 16.180957 769.000000 0.85
30.932842 17.483780 767.000000 0.85
30.932842 18.828687 767.000000 0.85
30.932842 20.173593 767.000000 0.85
30.932842 21.518499 767.000000 0.85
31.013502 22.923023 769.000000 0.85
31.013502 24.271436 769.000000 0.85
31.013502 25.619849 769.000000 0.85
31.013502 26.968262 769.000000 0.85
31.013502 28.316675 769.000000 0.85
31.094161 29.742241 771.000000 0.85
31.094161 31.094161 771.000000 0.85
31.013502 32.361915 769.000000 0.85
31.013502 33.710328 769.000000 0.85
27.343503 30.910047 678.000000 0.85
27.343503 32.098895 678.000000 0.85
27.222514 33.140452 675.000000 0.85
27.182185 34.273190 674.000000 0.85
27.101526 35.349816 672.000000 0.85
27.061196 36.473786 671.000000 0.85
27.061196 37.650359 671.000000 0.85
27.061196 38.826933 671.000000 0.85
27.020866 39.943889 670.000000 0.85
26.940207 40.995967 668.000000 0.85
26.899877 42.104156 667.000000 0.85
26.859548 43.208837 666.000000 0.85
26.778888 44.243381 664.000000 0.85
26.738559 45.339295 663.000000 0.85
26.698229 46.431703 662.000000 0.85
26.698229 47.592495 662.000000 0.85
26.698229 48.753288 662.000000 0.85
26.657899 49.838681 661.000000 0.85
26.657899 50.997720 661.000000 0.85
26.657899 52.156760 661.000000 0.85
26.657899 53.315799 661.000000 0.85
26.657899 54.474838 661.000000 0.85
26.657899 55.633877 661.000000 0.85
26.657899 56.792916 661.000000 0.85
26.657899 57.951955 661.000000 0.85
26.698229 59.200421 662.000000 0.85
26.738559 60.452393 663.000000 0.85
26.778888 61.707873 664.000000 0.85
32.446081 14.871120 771.000000 0.85
32.361915 16.180957 769.000000 0.85
32.277749 17.483780 767.000000 0.85
32.277749 18.828687 767.000000 0.85
32.277749 20.173593 767.000000 0.85
32.277749 21.518499 767.000000 0.85
32.361915 22.923023 769.000000 0.85
32.361915 24.271436 769.000000 0.85
32.361915 25.619849 769.000000 0.85
32.361915 26.968262 769.000000 0.85
32.361915 28.316675 769.000000 0.85
32.446081 29.742241 771.000000 0.85
32.446081 31.094161 771.000000 0.85
32.361915 32.361915 769.000000 0.85
32.361915 33.710328 769.000000 0.85
28.616518 31.001227 680.000000 0.85
28.616518 32.193582 680.000000 0.85
28.574435 33.336840 679.000000 0.85
28.406102 34.324040 675.000000 0.85
28.279853 35.349816 672.000000 0.85
28.237770 36.473786 671.000000 0.85
28.237770 37.650359 671.000000 0.85
28.237770 38.826933 671.000000 0.85
28.195686 39.943889 670.000000 0.85
28.195686 41.118709 670.000000 0.85
28.111520 42.167280 668.000000 0.85
28.069437 43.273716 667.000000 0.85
28.027354 44.376644 666.000000 0.85
27.901105 45.339295 663.000000 0.85
27.901105 46.501841 663.000000 0.85
27.859022 47.592495 662.000000 0.85
27.859022 48.753288 662.000000 0.85
27.859022 49.914080 662.000000 0.85
27.816938 50.997720 661.000000 0.85
27.816938 52.156760 661.000000 0.85
27.816938 53.315799 661.000000 0.85
27.816938 54.474838 661.000000 0.85
27.859022 55.718043 662.000000 0.85
27.859022 56.878836 662.000000 0.85
27.859022 58.039628 662.000000 0.85
27.901105 59.289847 663.000000 0.85
27.901105 60.452393 663.000000 0.85
27.943188 61.707873 664.000000 0.85
33.710328 14.832544 769.000000 0.85
33.710328 16.180957 769.000000 0.85
33.622655 17.483780 767.000000 0.85
33.622655 18.828687 767.000000 0.85
33.622655 20.173593 767.000000 0.85
33.622655 21.518499 767.000000 0.85
33.622655 22.863405 767.000000 0.85
33.622655 24.208311 767.000000 0.85
33.622655 25.553218 767.000000 0.85
33.622655 26.898124 767.000000 0.85
33.710328 31.013502 769.000000 0.85
33.710328 33.710328 769.000000 0.85
29.940382 31.137998 683.000000 0.85
29.896546 32.288269 682.000000 0.85
29.808873 33.385937 680.000000 0.85
29.633526 34.374890 676.000000 0.85
29.458180 35.349816 672.000000 0.85
29.458180 36.528143 672.000000 0.85
29.414343 37.650359 671.000000 0.85
29.414343 38.826933 671.000000 0.85
29.370507 39.943889 670.000000 0.85
29.370507 41.118709 670.000000 0.85
29.282834 42.167280 668.000000 0.85
29.238997 43.273716 667.000000 0.85
29.195160 44.376644 666.000000 0.85
29.063651 45.339295 663.000000 0.85
29.063651 46.501841 663.000000 0.85
29.019814 47.592495 662.000000 0.85
29.019814 48.753288 662.000000 0.85
29.019814 49.914080 662.000000 0.85
29.019814 51.074873 662.000000 0.85
29.019814 52.235665 662.000000 0.85
29.019814 53.396458 662.000000 0.85
29.019814 54.557251 662.000000 0.85
29.063651 55.802209 663.000000 0.85
29.107487 57.050675 664.000000 0.85
29.107487 58.214975 664.000000 0.85
29.107487 59.379274 664.000000 0.85
29.107487 60.543574 664.000000 0.85
29.107487 61.707873 664.000000 0.85
34.967561 14.793968 767.000000 0.85
34.967561 16.138874 767.000000 0.85
34.967561 17.483780 767.000000 0.85
34.967561 18.828687 767.000000 0.85
34.967561 20.173593 767.000000 0.85
34.967561 21.518499 767.000000 0.85
34.967561 22.863405 767.000000 0.85
34.967561 24.208311 767.000000 0.85
34.967561 25.553218 767.000000 0.85
34.967561 26.898124 767.000000 0.85
35.058741 28.316675 769.000000 0.85
31.183588 28.784850 684.000000 0.85
31.183588 29.984219 684.000000 0.85
31.137998 31.137998 683.000000 0.85
31.092408 32.288269 682.000000 0.85
31.092408 33.484131 682.000000 0.85
30.910047 34.476591 678.000000 0.85
30.636507 35.349816 672.000000 0.85
30.636507 36.528143 672.000000 0.85
30.590917 37.650359 671.000000 0.85
30.590917 38.826933 671.000000 0.85
30.545327 39.943889 670.000000 0.85
30.545327 41.118709 670.000000 0.85
30.454147 42.167280 668.000000 0.85
30.454147 43.338594 668.000000 0.85
30.362967 44.376644 666.000000 0.85
30.271787 45.407680 664.000000 0.85
30.226197 46.501841 663.000000 0.85
30.226197 47.664387 663.000000 0.85
30.226197 48.826933 663.000000 0.85
30.226197 49.989479 663.000000 0.85
30.226197 51.152025 663.000000 0.85
30.226197 52.314571 663.000000 0.85
30.271787 53.557777 664.000000 0.85
30.271787 54.722076 664.000000 0.85
30.271787 55.886376 664.000000 0.85
30.271787 57.050675 664.000000 0.85
30.362967 58.390321 666.000000 0.85
30.362967 59.558127 666.000000 0.85
30.362967 60.725934 666.000000 0.85
36.312467 14.793968 767.000000 0.85
36.265124 16.117833 766.000000 0.85
36.265124 17.460985 766.000000 0.85
36.265124 18.804138 766.000000 0.85
36.265124 20.147291 766.000000 0.85
36.265124 21.490444 766.000000 0.85
36.265124 22.833596 766.000000 0.85
36.265124 24.176749 766.000000 0.85
36.312467 25.553218 767.000000 0.85
36.407154 28.316675 769.000000 0.85
32.382956 28.784850 684.000000 0.85
32.382956 29.984219 684.000000 0.85
32.335613 31.137998 683.000000 0.85
32.335613 32.335613 683.000000 0.85
32.288269 33.484131 682.000000 0.85
32.193582 34.578292 680.000000 0.85
32.004208 35.560231 676.000000 0.85
31.814834 36.528143 672.000000 0.85
31.814834 37.706470 672.000000 0.85
31.767491 38.826933 671.000000 0.85
31.767491 40.003507 671.000000 0.85
31.767491 41.180081 671.000000 0.85
31.720147 42.293530 670.000000 0.85
31.720147 43.468350 670.000000 0.85
31.578117 44.443275 667.000000 0.85
31.530773 45.544450 666.000000 0.85
31.436086 46.571980 664.000000 0.85
31.436086 47.736279 664.000000 0.85
31.436086 48.900579 664.000000 0.85
31.436086 50.064878 664.000000 0.85
31.436086 51.229178 664.000000 0.85
31.436086 52.393477 664.000000 0.85
31.436086 53.557777 664.000000 0.85
31.436086 54.722076 664.000000 0.85
31.436086 55.886376 664.000000 0.85
31.530773 57.222514 666.000000 0.85
31.530773 58.390321 666.000000 0.85
31.530773 59.558127 666.000000 0.85
31.578117 60.817114 667.000000 0.85
37.608276 14.774680 766.000000 0.85
37.510082 16.075750 764.000000 0.85
37.510082 17.415395 764.000000 0.85
37.608276 18.804138 766.000000 0.85
37.608276 20.147291 766.000000 0.85
37.608276 21.490444 766.000000 0.85
37.608276 22.833596 766.000000 0.85
37.608276 24.176749 766.000000 0.85
37.657373 25.553218 767.000000 0.85
33.680519 28.869016 686.000000 0.85
33.680519 30.071892 686.000000 0.85
33.533228 31.137998 683.000000 0.85
33.533228 32.335613 683.000000 0.85
33.484131 33.484131 682.000000 0.85
33.385937 34.578292 680.000000 0.85
33.189549 35.560231 676.000000 0.85
33.091355 36.636858 674.000000 0.85
32.993161 37.706470 672.000000 0.85
32.944065 38.826933 671.000000 0.85
32.944065 40.003507 671.000000 0.85
32.894968 41.118709 670.000000 0.85
32.894968 42.293530 670.000000 0.85
32.894968 43.468350 670.000000 0.85
32.796774 44.509907 668.000000 0.85
32.698580 45.544450 666.000000 0.85
32.698580 46.712257 666.000000 0.85
32.600386 47.736279 664.000000 0.85
32.600386 48.900579 664.000000 0.85
32.600386 50.064878 664.000000 0.85
32.600386 51.229178 664.000000 0.85
32.600386 52.393477 664.000000 0.85
32.698580 53.719095 666.000000 0.85
32.698580 54.886902 666.000000 0.85
32.698580 56.054708 666.000000 0.85
32.747677 57.308434 667.000000 0.85
32.747677 58.477994 667.000000 0.85
32.747677 59.647554 667.000000 0.85
32.747677 60.817114 667.000000 0.85
38.951429 14.774680 766.000000 0.85
38.849728 16.075750 764.000000 0.85
38.849728 17.415395 764.000000 0.85
38.951429 18.804138 766.000000 0.85
38.951429 20.147291 766.000000 0.85
38.849728 21.434333 764.000000 0.85
38.849728 22.773979 764.000000 0.85
38.951429 24.176749 766.000000 0.85
35.137647 26.656146 691.000000 0.85
34.883395 30.071892 686.000000 0.85
34.730843 31.137998 683.000000 0.85
34.730843 32.335613 683.000000 0.85
34.679993 33.484131 682.000000 0.85
34.578292 34.578292 680.000000 0.85
34.476591 35.665439 678.000000 0.85
34.324040 36.691215 675.000000 0.85
34.171489 37.706470 672.000000 0.85
34.120638 38.826933 671.000000 0.85
34.120638 40.003507 671.000000 0.85
34.069788 41.118709 670.000000 0.85
34.069788 42.293530 670.000000 0.85
34.069788 43.468350 670.000000 0.85
34.069788 44.643170 670.000000 0.85
33.866386 45.544450 666.000000 0.85
33.866386 46.712257 666.000000 0.85
33.866386 47.880063 666.000000 0.85
33.866386 49.047870 666.000000 0.85
33.866386 50.215676 666.000000 0.85
33.866386 51.383482 666.000000 0.85
33.866386 52.551289 666.000000 0.85
33.866386 53.719095 666.000000 0.85
33.866386 54.886902 666.000000 0.85
33.917237 56.138874 667.000000 0.85
33.917237 57.308434 667.000000 0.85
33.917237 58.477994 667.000000 0.85
33.917237 59.647554 667.000000 0.85
40.294582 16.117833 766.000000 0.85
40.347186 17.483780 767.000000 0.85
40.294582 18.804138 766.000000 0.85
40.294582 20.147291 766.000000 0.85
40.189374 21.434333 764.000000 0.85
40.189374 22.773979 764.000000 0.85
36.664913 21.998948 697.000000 0.85
36.664913 23.221112 697.000000 0.85
36.612309 24.408206 696.000000 0.85
36.454498 25.518148 693.000000 0.85
36.349290 26.656146 691.000000 0.85
36.349290 27.867789 691.000000 0.85
36.191478 28.953183 688.000000 0.85
36.086270 30.071892 686.000000 0.85
35.928459 31.137998 683.000000 0.85
35.875855 32.288269 682.000000 0.85
35.875855 33.484131 682.000000 0.85
35.770647 34.578292 680.000000 0.85
35.665439 35.665439 678.000000 0.85
35.507628 36.691215 675.000000 0.85
35.455024 37.818692 674.000000 0.85
35.349816 38.884797 672.000000 0.85
35.297212 40.003507 671.000000 0.85
35.297212 41.180081 671.000000 0.85
35.244608 42.293530 670.000000 0.85
35.244608 43.468350 670.000000 0.85
35.244608 44.643170 670.000000 0.85
35.139400 45.681220 668.000000 0.85
35.086796 46.782395 667.000000 0.85
35.034193 47.880063 666.000000 0.85
35.034193 49.047870 666.000000 0.85
35.034193 50.215676 666.000000 0.85
35.034193 51.383482 666.000000 0.85
35.086796 52.630195 667.000000 0.85
35.086796 53.799755 667.000000 0.85
35.086796 54.969314 667.000000 0.85
35.086796 56.138874 667.000000 0.85
35.086796 57.308434 667.000000 0.85
35.086796 58.477994 667.000000 0.85
35.086796 59.647554 667.000000 0.85
43.866386 18.395581 807.000000 0.85
41.637735 18.804138 766.000000 0.85
41.637735 20.147291 766.000000 0.85
41.529020 21.434333 764.000000 0.85
41.529020 22.773979 764.000000 0.85
38.430651 22.314571 707.000000 0.85
37.887077 23.221112 697.000000 0.85
37.832720 24.408206 696.000000 0.85
37.669648 25.518148 693.000000 0.85
37.560933 26.656146 691.000000 0.85
37.560933 27.867789 691.000000 0.85
37.397861 28.953183 688.000000 0.85
37.343503 30.115729 687.000000 0.85
37.126074 31.137998 683.000000 0.85
37.071717 32.288269 682.000000 0.85
37.071717 33.484131 682.000000 0.85
36.963002 34.578292 680.000000 0.85
36.908645 35.718043 679.000000 0.85
36.745573 36.745573 676.000000 0.85
36.636858 37.818692 674.000000 0.85
36.528143 38.884797 672.000000 0.85
36.473786 40.003507 671.000000 0.85
36.473786 41.180081 671.000000 0.85
36.473786 42.356654 671.000000 0.85
36.419428 43.468350 670.000000 0.85
36.419428 44.643170 670.000000 0.85
36.310714 45.681220 668.000000 0.85
36.310714 46.852534 668.000000 0.85
36.256356 47.951955 667.000000 0.85
36.256356 49.121515 667.000000 0.85
36.256356 50.291075 667.000000 0.85
36.256356 51.460635 667.000000 0.85
36.256356 52.630195 667.000000 0.85
36.310714 53.880414 668.000000 0.85
36.310714 55.051727 668.000000 0.85
36.310714 56.223041 668.000000 0.85
36.310714 57.394354 668.000000 0.85
36.310714 58.565667 668.000000 0.85
36.310714 59.736981 668.000000 0.85
45.169209 19.761529 805.000000 0.85
42.980887 20.147291 766.000000 0.85
39.670349 19.835174 707.000000 0.85
39.670349 21.074873 707.000000 0.85
39.670349 22.314571 707.000000 0.85
39.109241 23.221112 697.000000 0.85
39.109241 24.443275 697.000000 0.85
39.053130 25.628617 696.000000 0.85
38.772576 26.656146 691.000000 0.85
38.772576 27.867789 691.000000 0.85
38.604243 28.953183 688.000000 0.85
38.548133 30.115729 687.000000 0.85
38.379800 31.183588 684.000000 0.85
38.323689 32.335613 683.000000 0.85
38.267578 33.484131 682.000000 0.85
38.155357 34.578292 680.000000 0.85
38.099246 35.718043 679.000000 0.85
37.930914 36.745573 676.000000 0.85
37.874803 37.874803 675.000000 0.85
37.874803 39.058390 675.000000 0.85
37.706470 40.063125 672.000000 0.85
37.706470 41.241452 672.000000 0.85
37.650359 42.356654 671.000000 0.85
37.650359 43.533228 671.000000 0.85
37.594249 44.643170 670.000000 0.85
37.594249 45.817991 670.000000 0.85
37.482027 46.852534 668.000000 0.85
37.482027 48.023847 668.000000 0.85
37.482027 49.195160 668.000000 0.85
37.482027 50.366474 668.000000 0.85
37.482027 51.537787 668.000000 0.85
37.594249 52.866912 670.000000 0.85
37.594249 54.041732 670.000000 0.85
37.594249 55.216553 670.000000 0.85
37.594249 56.391373 670.000000 0.85
37.594249 57.566193 670.000000 0.85
37.482027 58.565667 668.000000 0.85
46.465018 19.712432 803.000000 0.85
46.465018 21.120463 803.000000 0.85
40.910047 19.835174 707.000000 0.85
40.910047 21.074873 707.000000 0.85
40.504997 22.093635 700.000000 0.85
40.331405 23.221112 697.000000 0.85
40.331405 24.443275 697.000000 0.85
40.273540 25.628617 696.000000 0.85
39.984219 26.656146 691.000000 0.85
