ply
format ascii 1.0
comment
element vertex 1254
property float32 x
property float32 y
property float32 z
property float intensity
element face 0
property list uchar int vertex_indices
end_header
-109.684377 13.868140 719.000000 0.85
-109.379274 15.086796 717.000000 0.85
-108.921620 16.275644 714.000000 0.85
-108.463966 17.453972 711.000000 0.85
-108.311415 18.674382 710.000000 0.85
-107.853761 19.835174 707.000000 0.85
-107.701210 21.045064 706.000000 0.85
-107.396107 22.219884 704.000000 0.85
-106.938453 23.354375 701.000000 0.85
-106.480800 24.478345 698.000000 0.85
-106.480800 25.702262 698.000000 0.85
-106.175697 26.849027 696.000000 0.85
-105.870594 27.988778 694.000000 0.85
-105.718043 29.163598 693.000000 0.85
-104.955287 30.159565 688.000000 0.85
-104.802735 31.320358 687.000000 0.85
-104.802735 32.524987 687.000000 0.85
-104.802735 33.729616 687.000000 0.85
-104.802735 34.934245 687.000000 0.85
-104.039979 41.855164 682.000000 0.85
-104.039979 43.051026 682.000000 0.85
-104.039979 44.246888 682.000000 0.85
-103.734876 45.309486 680.000000 0.85
-103.734876 46.501841 680.000000 0.85
-103.734876 47.694196 680.000000 0.85
-104.039979 49.030335 682.000000 0.85
-104.192530 50.299842 683.000000 0.85
-104.192530 51.497457 683.000000 0.85
-104.345082 52.772225 684.000000 0.85
-111.891987 2.602139 742.000000 0.85
-111.891987 3.903209 742.000000 0.85
-111.741189 5.197265 741.000000 0.85
-111.288795 6.470279 738.000000 0.85
-110.685604 7.722251 734.000000 0.85
-110.233211 8.972471 731.000000 0.85
-109.780817 10.212169 728.000000 0.85
-109.328424 11.441347 725.000000 0.85
-108.876030 12.660004 722.000000 0.85
-108.423637 13.868140 719.000000 0.85
-108.122041 15.086796 717.000000 0.85
-107.669648 16.275644 714.000000 0.85
-107.217254 17.453972 711.000000 0.85
-107.066456 18.674382 710.000000 0.85
-106.614063 19.835174 707.000000 0.85
-106.463265 21.045064 706.000000 0.85
-106.161669 22.219884 704.000000 0.85
-105.558478 23.321059 700.000000 0.85
-105.106085 24.443275 697.000000 0.85
-104.955287 25.628617 696.000000 0.85
-104.653691 26.771874 694.000000 0.85
-104.502893 27.948448 693.000000 0.85
-103.748904 28.953183 688.000000 0.85
-103.598106 30.115729 687.000000 0.85
-103.447308 31.274768 686.000000 0.85
-103.145713 32.382956 684.000000 0.85
-103.145713 33.582325 684.000000 0.85
-102.994915 34.730843 683.000000 0.85
-102.994915 35.928459 683.000000 0.85
-102.844117 41.855164 682.000000 0.85
-102.844117 43.051026 682.000000 0.85
-102.844117 44.246888 682.000000 0.85
-102.542521 45.309486 680.000000 0.85
-102.542521 46.501841 680.000000 0.85
-102.542521 47.694196 680.000000 0.85
-102.844117 49.030335 682.000000 0.85
-102.994915 50.299842 683.000000 0.85
-102.994915 51.497457 683.000000 0.85
-103.145713 52.772225 684.000000 0.85
-103.447308 54.129406 686.000000 0.85
-110.889006 3.913730 744.000000 0.85
-110.889006 5.218306 744.000000 0.85
-110.441873 6.496581 741.000000 0.85
-109.398562 7.722251 734.000000 0.85
-108.802385 8.960196 730.000000 0.85
-108.504296 10.212169 728.000000 0.85
-108.057163 11.441347 725.000000 0.85
-107.610030 12.660004 722.000000 0.85
-106.864808 13.829563 717.000000 0.85
-106.715764 15.065755 716.000000 0.85
-106.417675 16.275644 714.000000 0.85
-105.970542 17.453972 711.000000 0.85
-105.821497 18.674382 710.000000 0.85
-105.374364 19.835174 707.000000 0.85
-105.225320 21.045064 706.000000 0.85
-104.480098 22.125197 701.000000 0.85
-104.331054 23.321059 700.000000 0.85
-103.883921 24.443275 697.000000 0.85
-103.734876 25.628617 696.000000 0.85
-103.436788 26.771874 694.000000 0.85
-102.840610 27.827459 690.000000 0.85
-102.542521 28.953183 688.000000 0.85
-102.393477 30.115729 687.000000 0.85
-101.946344 31.183588 684.000000 0.85
-101.797300 32.335613 683.000000 0.85
-101.797300 33.533228 683.000000 0.85
-101.797300 34.730843 683.000000 0.85
-101.797300 35.928459 683.000000 0.85
-101.648255 40.659302 682.000000 0.85
-101.350167 41.732422 680.000000 0.85
-101.350167 42.924776 680.000000 0.85
-101.350167 44.117131 680.000000 0.85
-101.350167 45.309486 680.000000 0.85
-101.350167 46.501841 680.000000 0.85
-101.350167 47.694196 680.000000 0.85
-101.648255 49.030335 682.000000 0.85
-101.797300 50.299842 683.000000 0.85
-101.797300 51.497457 683.000000 0.85
-101.648255 52.617920 682.000000 0.85
-101.648255 53.813782 682.000000 0.85
-110.026302 1.309837 747.000000 0.85
-110.026302 2.619674 747.000000 0.85
-109.289847 3.903209 742.000000 0.85
-109.142557 5.197265 741.000000 0.85
-108.847975 6.479046 739.000000 0.85
-108.406102 7.743293 736.000000 0.85
-107.522357 8.960196 730.000000 0.85
-107.227775 10.212169 728.000000 0.85
-106.491320 11.409784 723.000000 0.85
-105.902157 12.607400 719.000000 0.85
-105.607575 13.829563 717.000000 0.85
-105.460284 15.065755 716.000000 0.85
-105.018411 16.252849 713.000000 0.85
-104.723830 17.453972 711.000000 0.85
-104.576539 18.674382 710.000000 0.85
-104.134666 19.835174 707.000000 0.85
-103.692793 20.985446 704.000000 0.85
-103.250921 22.125197 701.000000 0.85
-102.809048 23.254427 698.000000 0.85
-102.514466 24.408206 696.000000 0.85
-102.219884 25.554971 694.000000 0.85
-101.778012 26.656146 691.000000 0.85
-101.630721 27.827459 690.000000 0.85
-101.336139 28.953183 688.000000 0.85
-101.188848 30.115729 687.000000 0.85
-100.746975 31.183588 684.000000 0.85
-100.599684 32.335613 683.000000 0.85
-100.599684 33.533228 683.000000 0.85
-100.599684 34.730843 683.000000 0.85
-100.599684 35.928459 683.000000 0.85
-99.863230 36.854287 678.000000 0.85
-99.863230 38.043135 678.000000 0.85
-99.863230 39.231983 678.000000 0.85
-99.863230 40.420831 678.000000 0.85
-100.010521 41.671050 679.000000 0.85
-100.010521 42.861652 679.000000 0.85
-100.010521 44.052253 679.000000 0.85
-99.863230 45.176223 678.000000 0.85
-99.863230 46.365071 678.000000 0.85
-100.157812 47.694196 680.000000 0.85
-100.452393 49.030335 682.000000 0.85
-100.452393 50.226197 682.000000 0.85
-100.599684 51.497457 683.000000 0.85
-100.452393 52.617920 682.000000 0.85
-100.452393 53.813782 682.000000 0.85
-100.452393 55.009644 682.000000 0.85
-109.735227 0.000000 754.000000 0.85
-108.716465 1.309837 747.000000 0.85
-108.570928 2.616167 746.000000 0.85
-107.843240 3.897948 741.000000 0.85
-107.552166 5.183237 739.000000 0.85
-107.552166 6.479046 739.000000 0.85
-107.115553 7.743293 736.000000 0.85
-106.387866 8.972471 731.000000 0.85
-105.951254 10.212169 728.000000 0.85
-105.223567 11.409784 723.000000 0.85
-104.641417 12.607400 719.000000 0.85
-104.204804 13.810275 716.000000 0.85
-103.913730 15.023672 714.000000 0.85
-103.768192 16.252849 713.000000 0.85
-103.331580 17.429423 710.000000 0.85
-103.331580 18.674382 710.000000 0.85
-102.749430 19.807119 706.000000 0.85
-102.458355 20.985446 704.000000 0.85
-102.021743 22.125197 701.000000 0.85
-101.585131 23.254427 698.000000 0.85
-101.294056 24.408206 696.000000 0.85
-100.857443 25.518148 693.000000 0.85
-100.566369 26.656146 691.000000 0.85
-100.420831 27.827459 690.000000 0.85
-100.129756 28.953183 688.000000 0.85
-99.984219 30.115729 687.000000 0.85
-99.547607 31.183588 684.000000 0.85
-99.402069 32.335613 683.000000 0.85
-99.402069 33.533228 683.000000 0.85
-99.402069 34.730843 683.000000 0.85
-99.402069 35.928459 683.000000 0.85
-98.674382 38.043135 678.000000 0.85
-98.674382 39.231983 678.000000 0.85
-98.674382 40.420831 678.000000 0.85
-98.674382 41.609679 678.000000 0.85
-98.674382 42.798527 678.000000 0.85
-98.674382 43.987375 678.000000 0.85
-98.674382 45.176223 678.000000 0.85
-98.674382 46.365071 678.000000 0.85
-98.965457 47.694196 680.000000 0.85
-99.256532 49.030335 682.000000 0.85
-99.256532 50.226197 682.000000 0.85
-99.256532 51.422059 682.000000 0.85
-99.256532 52.617920 682.000000 0.85
-99.256532 53.813782 682.000000 0.85
-99.256532 55.009644 682.000000 0.85
-98.674382 55.875855 678.000000 0.85
-108.413116 -1.322111 754.000000 0.85
-108.125548 0.000000 752.000000 0.85
-108.125548 1.318604 752.000000 0.85
-107.262844 2.616167 746.000000 0.85
-106.543924 3.897948 741.000000 0.85
-106.256356 5.183237 739.000000 0.85
-105.825004 6.452744 736.000000 0.85
-105.393652 7.711731 733.000000 0.85
-104.962301 8.960196 730.000000 0.85
-104.674733 10.212169 728.000000 0.85
-103.955813 11.409784 723.000000 0.85
-102.949325 12.554796 716.000000 0.85
-102.517973 13.752411 713.000000 0.85
-102.517973 15.002630 713.000000 0.85
-102.230405 16.207259 711.000000 0.85
-102.086621 17.429423 710.000000 0.85
-101.799053 18.621778 708.000000 0.85
-101.511485 19.807119 706.000000 0.85
-101.080133 20.955637 703.000000 0.85
-100.648781 22.093635 700.000000 0.85
-100.073645 23.187796 696.000000 0.85
-99.786078 24.338068 694.000000 0.85
-99.354726 25.444503 691.000000 0.85
-99.210942 26.617570 690.000000 0.85
-98.923374 27.746800 688.000000 0.85
-98.779590 28.911099 687.000000 0.85
-98.635806 30.071892 686.000000 0.85
-98.204454 31.137998 683.000000 0.85
-98.060670 32.288269 682.000000 0.85
-98.060670 33.484131 682.000000 0.85
-97.629318 34.527442 679.000000 0.85
-96.622830 35.349816 672.000000 0.85
-97.485534 38.043135 678.000000 0.85
-97.485534 39.231983 678.000000 0.85
-97.629318 40.480449 679.000000 0.85
-97.485534 41.609679 678.000000 0.85
-97.485534 42.798527 678.000000 0.85
-97.485534 43.987375 678.000000 0.85
-97.197966 45.042960 676.000000 0.85
-97.197966 46.228301 676.000000 0.85
-97.773102 47.694196 680.000000 0.85
-98.060670 49.030335 682.000000 0.85
-97.773102 50.078906 680.000000 0.85
-97.773102 51.271261 680.000000 0.85
-98.060670 52.617920 682.000000 0.85
-98.060670 53.813782 682.000000 0.85
-97.629318 54.767666 679.000000 0.85
-97.197966 55.711029 676.000000 0.85
-107.091005 -2.644222 754.000000 0.85
-106.806944 -1.318604 752.000000 0.85
-106.806944 0.000000 752.000000 0.85
-106.806944 1.318604 752.000000 0.85
-106.806944 2.637208 752.000000 0.85
-104.818517 3.882167 738.000000 0.85
-104.818517 5.176223 738.000000 0.85
-104.534456 6.452744 736.000000 0.85
-103.824303 7.690689 731.000000 0.85
-103.398211 8.935648 728.000000 0.85
-103.256181 10.198141 727.000000 0.85
-102.688059 11.409784 723.000000 0.85
-101.693845 12.554796 716.000000 0.85
-101.267754 13.752411 713.000000 0.85
-101.267754 15.002630 713.000000 0.85
-100.983693 16.207259 711.000000 0.85
-100.841662 17.429423 710.000000 0.85
-100.557601 18.621778 708.000000 0.85
-100.273540 19.807119 706.000000 0.85
-99.847449 20.955637 703.000000 0.85
-99.137296 22.030510 698.000000 0.85
-98.569174 23.121164 694.000000 0.85
-98.143083 24.232860 691.000000 0.85
-98.143083 25.444503 691.000000 0.85
-97.574961 26.501841 687.000000 0.85
-97.574961 27.706470 687.000000 0.85
-97.432930 28.869016 686.000000 0.85
-97.006839 29.940382 683.000000 0.85
-96.864808 31.092408 682.000000 0.85
-96.580747 32.193582 680.000000 0.85
-96.438716 33.336840 679.000000 0.85
-96.438716 34.527442 679.000000 0.85
-95.444503 35.349816 672.000000 0.85
-95.444503 36.528143 672.000000 0.85
-95.302472 37.650359 671.000000 0.85
-95.160442 38.769069 670.000000 0.85
-96.438716 40.480449 679.000000 0.85
-95.728564 41.364194 674.000000 0.85
-95.728564 42.546028 674.000000 0.85
-95.870594 43.792741 675.000000 0.85
-95.870594 44.976328 675.000000 0.85
-95.870594 46.159916 675.000000 0.85
-95.870594 47.343503 675.000000 0.85
-96.012625 48.598983 676.000000 0.85
-96.012625 49.784324 676.000000 0.85
-95.870594 50.894266 675.000000 0.85
-95.870594 52.077854 675.000000 0.85
-96.012625 53.340347 676.000000 0.85
-96.012625 54.525688 676.000000 0.85
-95.870594 55.628617 675.000000 0.85
-95.728564 56.728038 674.000000 0.85
-105.909171 -5.295459 755.000000 0.85
-105.768894 -3.966334 754.000000 0.85
-105.768894 -2.644222 754.000000 0.85
-105.488339 -1.318604 752.000000 0.85
-105.488339 0.000000 752.000000 0.85
-105.488339 1.318604 752.000000 0.85
-105.488339 2.637208 752.000000 0.85
-103.524461 3.882167 738.000000 0.85
-103.524461 5.176223 738.000000 0.85
-102.963353 6.435210 734.000000 0.85
-102.402244 7.680168 730.000000 0.85
-101.981413 8.923374 727.000000 0.85
-101.700859 10.170086 725.000000 0.85
-101.280028 11.394003 722.000000 0.85
-100.438366 12.554796 716.000000 0.85
-100.017535 13.752411 713.000000 0.85
-100.017535 15.002630 713.000000 0.85
-99.736981 16.207259 711.000000 0.85
-99.596703 17.429423 710.000000 0.85
-99.316149 18.621778 708.000000 0.85
-99.035595 19.807119 706.000000 0.85
-98.614764 20.955637 703.000000 0.85
-97.913379 22.030510 698.000000 0.85
-97.211994 23.087849 693.000000 0.85
-96.931440 24.232860 691.000000 0.85
-96.510608 25.334035 688.000000 0.85
-96.230054 26.463265 686.000000 0.85
-96.230054 27.666141 686.000000 0.85
-95.809223 28.742767 683.000000 0.85
-95.668946 29.896546 682.000000 0.85
-95.388392 31.001227 680.000000 0.85
-95.107838 32.098895 678.000000 0.85
-94.827284 33.189549 676.000000 0.85
-94.546730 34.273190 674.000000 0.85
-94.266176 35.349816 672.000000 0.85
-94.266176 36.528143 672.000000 0.85
-94.125899 37.650359 671.000000 0.85
-93.985622 38.769069 670.000000 0.85
-93.985622 39.943889 670.000000 0.85
-94.125899 41.180081 671.000000 0.85
-94.125899 42.356654 671.000000 0.85
-94.125899 43.533228 671.000000 0.85
-94.125899 44.709802 671.000000 0.85
-94.266176 45.954761 672.000000 0.85
-94.266176 47.133088 672.000000 0.85
-94.546730 48.455199 674.000000 0.85
-94.546730 49.637033 674.000000 0.85
-94.546730 50.818867 674.000000 0.85
-94.546730 52.000701 674.000000 0.85
-94.266176 53.024724 672.000000 0.85
-94.266176 54.203051 672.000000 0.85
-94.546730 55.546204 674.000000 0.85
-94.266176 56.559705 672.000000 0.85
-94.125899 57.652113 671.000000 0.85
-104.585306 -5.295459 755.000000 0.85
-104.446782 -3.966334 754.000000 0.85
-104.446782 -2.644222 754.000000 0.85
-104.446782 -1.322111 754.000000 0.85
-104.169735 0.000000 752.000000 0.85
-104.169735 1.318604 752.000000 0.85
-103.892688 2.630195 750.000000 0.85
-103.892688 3.945292 750.000000 0.85
-102.230405 5.176223 738.000000 0.85
-101.676311 6.435210 734.000000 0.85
-101.122216 7.680168 730.000000 0.85
-100.706646 8.923374 727.000000 0.85
-100.429598 10.170086 725.000000 0.85
-100.014028 11.394003 722.000000 0.85
-99.598457 12.607400 719.000000 0.85
-99.182886 13.810275 716.000000 0.85
-98.905839 15.023672 714.000000 0.85
-98.490268 16.207259 711.000000 0.85
-98.351745 17.429423 710.000000 0.85
-98.074698 18.621778 708.000000 0.85
-97.797650 19.807119 706.000000 0.85
-97.520603 20.985446 704.000000 0.85
-96.689462 22.030510 698.000000 0.85
-95.165702 22.887954 687.000000 0.85
-95.165702 24.092583 687.000000 0.85
-94.750132 25.186744 684.000000 0.85
-94.750132 26.386113 684.000000 0.85
-94.611608 27.545152 683.000000 0.85
-94.473084 28.700684 682.000000 0.85
-94.196037 29.808873 680.000000 0.85
-94.057514 30.955637 679.000000 0.85
-93.918990 32.098895 678.000000 0.85
-93.641943 33.189549 676.000000 0.85
-93.364896 34.273190 674.000000 0.85
-93.087849 35.349816 672.000000 0.85
-92.949325 36.473786 671.000000 0.85
-92.810801 37.594249 670.000000 0.85
-92.395231 38.595476 667.000000 0.85
-92.395231 39.765036 667.000000 0.85
-92.395231 40.934596 667.000000 0.85
-92.395231 42.104156 667.000000 0.85
-92.395231 43.273716 667.000000 0.85
-92.533754 44.509907 668.000000 0.85
-92.533754 45.681220 668.000000 0.85
-92.810801 46.992811 670.000000 0.85
-92.949325 48.239523 671.000000 0.85
-93.087849 49.489742 672.000000 0.85
-93.087849 50.668069 672.000000 0.85
-93.087849 51.846397 672.000000 0.85
-93.087849 53.024724 672.000000 0.85
-93.087849 54.203051 672.000000 0.85
-93.364896 55.546204 674.000000 0.85
-93.087849 56.559705 672.000000 0.85
-92.949325 57.652113 671.000000 0.85
-92.949325 58.828687 671.000000 0.85
-103.261441 -6.619323 755.000000 0.85
-103.261441 -5.295459 755.000000 0.85
-103.124671 -3.966334 754.000000 0.85
-103.124671 -2.644222 754.000000 0.85
-102.851131 -1.318604 752.000000 0.85
-102.851131 0.000000 752.000000 0.85
-102.577591 1.315097 750.000000 0.85
-102.440821 2.626688 749.000000 0.85
-102.440821 3.940032 749.000000 0.85
-101.073119 5.183237 739.000000 0.85
-100.389269 6.435210 734.000000 0.85
-99.568648 7.659127 728.000000 0.85
-99.158338 8.898825 725.000000 0.85
-98.884797 10.142031 723.000000 0.85
-98.748027 11.394003 722.000000 0.85
-98.337717 12.607400 719.000000 0.85
-97.927407 13.810275 716.000000 0.85
-97.653866 15.023672 714.000000 0.85
-97.243556 16.207259 711.000000 0.85
-97.106786 17.429423 710.000000 0.85
-96.696476 18.595476 707.000000 0.85
-96.286165 19.751008 704.000000 0.85
-96.149395 20.955637 703.000000 0.85
-95.465544 22.030510 698.000000 0.85
-93.961073 22.887954 687.000000 0.85
-93.961073 24.092583 687.000000 0.85
-93.550763 25.186744 684.000000 0.85
-93.550763 26.386113 684.000000 0.85
-93.413993 27.545152 683.000000 0.85
-93.003682 28.616518 680.000000 0.85
-92.866912 29.765036 679.000000 0.85
-92.730142 30.910047 678.000000 0.85
-92.456602 32.004208 676.000000 0.85
-92.319832 33.140452 675.000000 0.85
-91.909521 34.171489 672.000000 0.85
-91.772751 35.297212 671.000000 0.85
-91.772751 36.473786 671.000000 0.85
-91.635981 37.594249 670.000000 0.85
-91.225671 38.595476 667.000000 0.85
-91.225671 39.765036 667.000000 0.85
-91.225671 40.934596 667.000000 0.85
-91.225671 42.104156 667.000000 0.85
-91.225671 43.273716 667.000000 0.85
-91.225671 44.443275 667.000000 0.85
-91.362441 45.681220 668.000000 0.85
-91.362441 46.852534 668.000000 0.85
-91.362441 48.023847 668.000000 0.85
-91.772751 49.416097 671.000000 0.85
-91.772751 50.592671 671.000000 0.85
-91.772751 51.769244 671.000000 0.85
-91.772751 52.945818 671.000000 0.85
-91.772751 54.122392 671.000000 0.85
-91.909521 55.381378 672.000000 0.85
-91.909521 56.559705 672.000000 0.85
-91.909521 57.738033 672.000000 0.85
-91.909521 58.916360 672.000000 0.85
-101.937577 -5.295459 755.000000 0.85
-101.937577 -3.971594 755.000000 0.85
-101.802560 -2.644222 754.000000 0.85
-101.532527 -1.318604 752.000000 0.85
-101.532527 0.000000 752.000000 0.85
-101.262493 1.315097 750.000000 0.85
-101.127477 2.626688 749.000000 0.85
-99.777310 3.887428 739.000000 0.85
-99.777310 5.183237 739.000000 0.85
-98.967210 6.426442 733.000000 0.85
-98.292127 7.659127 728.000000 0.85
-97.887077 8.898825 725.000000 0.85
-97.617044 10.142031 723.000000 0.85
-97.482027 11.394003 722.000000 0.85
-97.076977 12.607400 719.000000 0.85
-96.671927 13.810275 716.000000 0.85
-96.401894 15.023672 714.000000 0.85
-95.996844 16.207259 711.000000 0.85
-95.861827 17.429423 710.000000 0.85
-95.321760 18.569174 706.000000 0.85
-95.051727 19.751008 704.000000 0.85
-94.916711 20.955637 703.000000 0.85
-94.916711 22.188322 703.000000 0.85
-92.756444 22.887954 687.000000 0.85
-92.621427 24.057514 686.000000 0.85
-92.621427 25.260389 686.000000 0.85
-92.351394 26.386113 684.000000 0.85
-92.216377 27.545152 683.000000 0.85
-91.811327 28.616518 680.000000 0.85
-91.676311 29.765036 679.000000 0.85
-91.541294 30.910047 678.000000 0.85
-91.136244 31.956865 675.000000 0.85
-91.001227 33.091355 674.000000 0.85
-90.731194 34.171489 672.000000 0.85
-90.596177 35.297212 671.000000 0.85
-90.596177 36.473786 671.000000 0.85
-90.191127 37.482027 668.000000 0.85
-90.056111 38.595476 667.000000 0.85
-90.056111 39.765036 667.000000 0.85
-90.056111 40.934596 667.000000 0.85
-89.921094 42.041031 666.000000 0.85
-89.921094 43.208837 666.000000 0.85
-90.056111 44.443275 667.000000 0.85
-90.056111 45.612835 667.000000 0.85
-90.056111 46.782395 667.000000 0.85
-90.056111 47.951955 667.000000 0.85
-90.191127 49.195160 668.000000 0.85
-90.461161 50.517272 670.000000 0.85
-90.461161 51.692092 670.000000 0.85
-90.596177 52.945818 671.000000 0.85
-90.596177 54.122392 671.000000 0.85
-90.596177 55.298965 671.000000 0.85
-90.731194 56.559705 672.000000 0.85
-90.731194 57.738033 672.000000 0.85
-90.731194 58.916360 672.000000 0.85
-415.781168 -27.354024 3120.000000 0.85
-100.880238 -5.309486 757.000000 0.85
-100.613712 -3.971594 755.000000 0.85
-100.480449 -2.644222 754.000000 0.85
-100.213922 -1.318604 752.000000 0.85
-100.213922 0.000000 752.000000 0.85
-99.947396 1.315097 750.000000 0.85
-99.814133 2.626688 749.000000 0.85
-98.081711 3.871647 736.000000 0.85
-97.815185 5.148168 734.000000 0.85
-97.282132 6.400140 730.000000 0.85
-97.015606 7.659127 728.000000 0.85
-96.615816 8.898825 725.000000 0.85
-96.349290 10.142031 723.000000 0.85
-96.216027 11.394003 722.000000 0.85
-95.816237 12.607400 719.000000 0.85
-95.416447 13.810275 716.000000 0.85
-95.149921 15.023672 714.000000 0.85
-95.016658 16.252849 713.000000 0.85
-94.350342 17.380326 708.000000 0.85
-93.817289 18.516570 704.000000 0.85
-93.817289 19.751008 704.000000 0.85
-91.685078 20.508504 688.000000 0.85
-91.685078 21.714887 688.000000 0.85
-91.418552 22.854638 686.000000 0.85
-91.152025 23.987375 684.000000 0.85
-91.152025 25.186744 684.000000 0.85
-91.018762 26.347536 683.000000 0.85
-90.885499 27.504822 682.000000 0.85
-90.885499 28.700684 682.000000 0.85
-90.618972 29.808873 680.000000 0.85
-90.352446 30.910047 678.000000 0.85
-89.952656 31.956865 675.000000 0.85
-89.819393 33.091355 674.000000 0.85
-89.552867 34.171489 672.000000 0.85
-89.419604 35.297212 671.000000 0.85
-89.286341 36.419428 670.000000 0.85
-89.019814 37.482027 668.000000 0.85
-88.886551 38.595476 667.000000 0.85
-88.753288 39.705418 666.000000 0.85
-88.753288 40.873225 666.000000 0.85
-88.753288 42.041031 666.000000 0.85
-88.753288 43.208837 666.000000 0.85
-88.753288 44.376644 666.000000 0.85
-88.753288 45.544450 666.000000 0.85
-88.753288 46.712257 666.000000 0.85
-88.886551 47.951955 667.000000 0.85
-88.886551 49.121515 667.000000 0.85
-88.886551 50.291075 667.000000 0.85
-89.019814 51.537787 668.000000 0.85
-89.019814 52.709100 668.000000 0.85
-89.286341 54.041732 670.000000 0.85
-89.286341 55.216553 670.000000 0.85
-89.286341 56.391373 670.000000 0.85
-89.419604 57.652113 671.000000 0.85
-89.419604 58.828687 671.000000 0.85
-410.310363 -27.354024 3120.000000 0.85
-99.552867 -5.309486 757.000000 0.85
-99.289847 -3.971594 755.000000 0.85
-99.158338 -2.644222 754.000000 0.85
-98.895318 -1.318604 752.000000 0.85
-98.895318 0.000000 752.000000 0.85
-98.632299 1.315097 750.000000 0.85
-98.500789 2.626688 749.000000 0.85
-96.791163 3.871647 736.000000 0.85
-96.133614 5.127126 731.000000 0.85
-95.739085 6.382606 728.000000 0.85
-95.344555 7.627564 725.000000 0.85
-95.081536 8.874277 723.000000 0.85
-94.950026 10.128003 722.000000 0.85
-94.687007 11.362441 720.000000 0.85
-94.555497 12.607400 719.000000 0.85
-94.160968 13.810275 716.000000 0.85
-93.766439 15.002630 713.000000 0.85
-93.503419 16.207259 711.000000 0.85
-93.108890 17.380326 708.000000 0.85
-92.582851 18.516570 704.000000 0.85
-92.582851 19.751008 704.000000 0.85
-90.478695 20.508504 688.000000 0.85
-90.347186 21.683325 687.000000 0.85
-90.215676 22.854638 686.000000 0.85
-89.952656 23.987375 684.000000 0.85
-89.821147 25.149921 683.000000 0.85
-89.689637 26.308960 682.000000 0.85
-89.689637 27.504822 682.000000 0.85
-89.426618 28.616518 680.000000 0.85
-89.295108 29.765036 679.000000 0.85
-89.163598 30.910047 678.000000 0.85
-88.900579 32.004208 676.000000 0.85
-88.637559 33.091355 674.000000 0.85
-88.374540 34.171489 672.000000 0.85
-88.243030 35.297212 671.000000 0.85
-88.111520 36.419428 670.000000 0.85
-87.848501 37.482027 668.000000 0.85
-87.716991 38.595476 667.000000 0.85
-87.585481 39.705418 666.000000 0.85
-87.585481 40.873225 666.000000 0.85
-87.585481 42.041031 666.000000 0.85
-87.322462 43.079081 664.000000 0.85
-87.322462 44.243381 664.000000 0.85
-87.585481 45.544450 666.000000 0.85
-87.585481 46.712257 666.000000 0.85
-87.585481 47.880063 666.000000 0.85
-87.585481 49.047870 666.000000 0.85
-87.585481 50.215676 666.000000 0.85
-87.716991 51.460635 667.000000 0.85
-87.716991 52.630195 667.000000 0.85
-87.848501 53.880414 668.000000 0.85
-87.848501 55.051727 668.000000 0.85
-88.111520 56.391373 670.000000 0.85
-88.111520 57.566193 670.000000 0.85
-88.111520 58.741014 670.000000 0.85
-88.243030 60.005260 671.000000 0.85
-401.206383 -27.108539 3092.000000 0.85
-98.225495 -5.309486 757.000000 0.85
-97.965983 -3.971594 755.000000 0.85
-97.836227 -2.644222 754.000000 0.85
-97.576714 -1.318604 752.000000 0.85
-97.576714 0.000000 752.000000 0.85
-97.317201 1.315097 750.000000 0.85
-95.500614 2.581098 736.000000 0.85
-95.500614 3.871647 736.000000 0.85
-94.851832 5.127126 731.000000 0.85
-93.813782 6.338769 723.000000 0.85
-93.813782 7.606523 723.000000 0.85
-93.684026 8.862002 722.000000 0.85
-93.684026 10.128003 722.000000 0.85
-93.424513 11.362441 720.000000 0.85
-93.035245 12.572330 717.000000 0.85
-92.905488 13.810275 716.000000 0.85
-92.516220 15.002630 713.000000 0.85
-92.256707 16.207259 711.000000 0.85
-91.737682 17.355778 707.000000 0.85
-91.737682 18.595476 707.000000 0.85
-91.348413 19.751008 704.000000 0.85
-89.272313 20.508504 688.000000 0.85
-89.142557 21.683325 687.000000 0.85
-89.012800 22.854638 686.000000 0.85
-88.753288 23.987375 684.000000 0.85
-88.623531 25.149921 683.000000 0.85
-88.493775 26.308960 682.000000 0.85
-88.493775 27.504822 682.000000 0.85
-88.234263 28.616518 680.000000 0.85
-87.974750 29.721199 678.000000 0.85
-87.715238 30.818867 676.000000 0.85
-87.196213 31.814834 672.000000 0.85
-87.196213 32.993161 672.000000 0.85
-87.196213 34.171489 672.000000 0.85
-87.066456 35.297212 671.000000 0.85
-86.677187 36.310714 668.000000 0.85
-86.547431 37.425916 667.000000 0.85
-86.417675 38.537612 666.000000 0.85
-86.158162 39.586183 664.000000 0.85
-86.028406 40.689111 663.000000 0.85
-86.028406 41.851657 663.000000 0.85
-86.158162 43.079081 664.000000 0.85
-86.158162 44.243381 664.000000 0.85
-86.158162 45.407680 664.000000 0.85
-86.158162 46.571980 664.000000 0.85
-86.158162 47.736279 664.000000 0.85
-86.158162 48.900579 664.000000 0.85
-86.417675 50.215676 666.000000 0.85
-86.417675 51.383482 666.000000 0.85
-86.547431 52.630195 667.000000 0.85
-86.547431 53.799755 667.000000 0.85
-86.547431 54.969314 667.000000 0.85
-86.547431 56.138874 667.000000 0.85
-86.936700 57.566193 670.000000 0.85
-86.936700 58.741014 670.000000 0.85
-87.066456 60.005260 671.000000 0.85
-87.066456 61.181834 671.000000 0.85
-395.784675 -27.108539 3092.000000 0.85
-96.898124 -5.309486 757.000000 0.85
-96.642118 -3.971594 755.000000 0.85
-96.514115 -2.644222 754.000000 0.85
-96.514115 -1.322111 754.000000 0.85
-96.258110 0.000000 752.000000 0.85
-95.874101 1.313344 749.000000 0.85
-94.210065 2.581098 736.000000 0.85
-94.210065 3.871647 736.000000 0.85
-93.954059 5.148168 734.000000 0.85
-92.546028 6.338769 723.000000 0.85
-92.546028 7.606523 723.000000 0.85
-92.418026 8.862002 722.000000 0.85
-92.418026 10.128003 722.000000 0.85
-92.162020 11.362441 720.000000 0.85
-91.778012 12.572330 717.000000 0.85
-91.394003 13.771699 714.000000 0.85
-91.009995 14.960547 711.000000 0.85
-90.625986 16.138874 708.000000 0.85
-90.369981 17.331229 706.000000 0.85
-89.985972 18.490268 703.000000 0.85
-89.985972 19.722953 703.000000 0.85
-88.065930 20.508504 688.000000 0.85
-87.937927 21.683325 687.000000 0.85
-87.809925 22.854638 686.000000 0.85
-87.425916 23.952306 683.000000 0.85
-87.425916 25.149921 683.000000 0.85
-87.297913 26.308960 682.000000 0.85
-87.041908 27.424163 680.000000 0.85
-86.913905 28.574435 679.000000 0.85
-86.785902 29.721199 678.000000 0.85
-86.529897 30.818867 676.000000 0.85
-86.017885 31.814834 672.000000 0.85
-86.017885 32.993161 672.000000 0.85
-85.889883 34.120638 671.000000 0.85
-85.761880 35.244608 670.000000 0.85
-85.505874 36.310714 668.000000 0.85
-85.377871 37.425916 667.000000 0.85
-85.249868 38.537612 666.000000 0.85
-84.993863 39.586183 664.000000 0.85
-84.865860 40.689111 663.000000 0.85
-84.737857 41.788532 662.000000 0.85
-84.737857 42.949325 662.000000 0.85
-84.737857 44.110117 662.000000 0.85
-84.865860 45.339295 663.000000 0.85
-84.865860 46.501841 663.000000 0.85
-84.865860 47.664387 663.000000 0.85
-84.865860 48.826933 663.000000 0.85
-84.865860 49.989479 663.000000 0.85
-85.249868 51.383482 666.000000 0.85
-85.249868 52.551289 666.000000 0.85
-85.249868 53.719095 666.000000 0.85
-85.249868 54.886902 666.000000 0.85
-85.249868 56.054708 666.000000 0.85
-85.505874 57.394354 668.000000 0.85
-85.505874 58.565667 668.000000 0.85
-85.505874 59.736981 668.000000 0.85
-85.761880 61.090654 670.000000 0.85
-95.570752 -5.309486 757.000000 0.85
-95.192004 -3.966334 754.000000 0.85
-95.192004 -2.644222 754.000000 0.85
-94.939506 -1.318604 752.000000 0.85
-94.560757 0.000000 749.000000 0.85
-94.308259 1.309837 747.000000 0.85
-93.677012 2.602139 742.000000 0.85
-92.919516 3.871647 736.000000 0.85
-92.667017 5.148168 734.000000 0.85
-91.278275 6.338769 723.000000 0.85
-91.278275 7.606523 723.000000 0.85
-91.152025 8.862002 722.000000 0.85
-91.152025 10.128003 722.000000 0.85
-90.520779 11.315097 717.000000 0.85
-90.142031 12.519726 714.000000 0.85
-90.015781 13.752411 713.000000 0.85
-89.637033 14.939506 710.000000 0.85
-89.258285 16.116079 707.000000 0.85
-88.500789 17.208487 701.000000 0.85
-88.374540 18.411362 700.000000 0.85
-87.617044 19.470454 694.000000 0.85
-86.859548 20.508504 688.000000 0.85
-86.733298 21.683325 687.000000 0.85
-86.607049 22.854638 686.000000 0.85
-86.228301 23.952306 683.000000 0.85
-86.102052 25.113098 682.000000 0.85
-86.102052 26.308960 682.000000 0.85
-85.849553 27.424163 680.000000 0.85
-85.597054 28.532351 678.000000 0.85
-85.344555 29.633526 676.000000 0.85
-85.218306 30.773277 675.000000 0.85
-84.839558 31.814834 672.000000 0.85
-84.713309 32.944065 671.000000 0.85
-84.713309 34.120638 671.000000 0.85
-84.334561 35.139400 668.000000 0.85
-84.208311 36.256356 667.000000 0.85
-84.208311 37.425916 667.000000 0.85
-83.829563 38.421883 664.000000 0.85
-83.703314 39.526565 663.000000 0.85
-83.450815 40.566369 661.000000 0.85
-83.450815 41.725408 661.000000 0.85
-83.450815 42.884447 661.000000 0.85
-83.450815 44.043486 661.000000 0.85
-83.450815 45.202525 661.000000 0.85
-83.450815 46.361564 661.000000 0.85
-83.450815 47.520603 661.000000 0.85
-83.577065 48.753288 662.000000 0.85
-83.577065 49.914080 662.000000 0.85
-83.703314 51.152025 663.000000 0.85
-83.829563 52.393477 664.000000 0.85
-84.082062 53.719095 666.000000 0.85
-84.082062 54.886902 666.000000 0.85
-84.082062 56.054708 666.000000 0.85
-84.082062 57.222514 666.000000 0.85
-84.082062 58.390321 666.000000 0.85
-84.082062 59.558127 666.000000 0.85
-84.208311 60.817114 667.000000 0.85
-93.869893 -3.966334 754.000000 0.85
-93.869893 -2.644222 754.000000 0.85
-93.620901 -1.318604 752.000000 0.85
-93.247414 0.000000 749.000000 0.85
-92.998422 1.309837 747.000000 0.85
-92.375942 2.602139 742.000000 0.85
-91.255480 3.855865 733.000000 0.85
-91.255480 5.141154 733.000000 0.85
-91.255480 6.426442 733.000000 0.85
-90.010521 7.606523 723.000000 0.85
-89.886025 8.862002 722.000000 0.85
-89.512537 10.085920 719.000000 0.85
-89.263546 11.315097 717.000000 0.85
-88.890058 12.519726 714.000000 0.85
-88.516570 13.713835 711.000000 0.85
-88.392074 14.939506 710.000000 0.85
-88.018587 16.116079 707.000000 0.85
-87.271611 17.208487 701.000000 0.85
-86.649132 18.306155 696.000000 0.85
-86.275644 19.442399 693.000000 0.85
-85.653165 20.508504 688.000000 0.85
-85.528669 21.683325 687.000000 0.85
-85.404173 22.854638 686.000000 0.85
-85.030686 23.952306 683.000000 0.85
-84.906190 25.113098 682.000000 0.85
-84.657198 26.231808 680.000000 0.85
-84.657198 27.424163 680.000000 0.85
-84.408206 28.532351 678.000000 0.85
-84.159214 29.633526 676.000000 0.85
-83.661231 30.636507 672.000000 0.85
-83.536735 31.767491 671.000000 0.85
-83.412239 32.894968 670.000000 0.85
-83.412239 34.069788 670.000000 0.85
-83.163247 35.139400 668.000000 0.85
-83.038752 36.256356 667.000000 0.85
-82.914256 37.369805 666.000000 0.85
-82.665264 38.421883 664.000000 0.85
-82.540768 39.526565 663.000000 0.85
-82.291776 40.566369 661.000000 0.85
-82.291776 41.725408 661.000000 0.85
-82.291776 42.884447 661.000000 0.85
-81.918289 43.843591 658.000000 0.85
-81.918289 44.997370 658.000000 0.85
-81.918289 46.151149 658.000000 0.85
-82.291776 47.520603 661.000000 0.85
-82.416272 48.753288 662.000000 0.85
-82.416272 49.914080 662.000000 0.85
-82.540768 51.152025 663.000000 0.85
-82.540768 52.314571 663.000000 0.85
-82.665264 53.557777 664.000000 0.85
-82.665264 54.722076 664.000000 0.85
-82.665264 55.886376 664.000000 0.85
-82.665264 57.050675 664.000000 0.85
-82.665264 58.214975 664.000000 0.85
-82.914256 59.558127 666.000000 0.85
-82.914256 60.725934 666.000000 0.85
-92.547782 -2.644222 754.000000 0.85
-92.547782 -1.322111 754.000000 0.85
-91.934070 0.000000 749.000000 0.85
-91.688585 1.309837 747.000000 0.85
-91.074873 2.602139 742.000000 0.85
-89.970191 3.855865 733.000000 0.85
-89.970191 5.141154 733.000000 0.85
-89.970191 6.426442 733.000000 0.85
-88.742767 7.606523 723.000000 0.85
-88.620025 8.862002 722.000000 0.85
-88.006312 10.057864 717.000000 0.85
-87.883570 11.299316 716.000000 0.85
-87.638085 12.519726 714.000000 0.85
-87.269858 13.713835 711.000000 0.85
-87.269858 14.960547 711.000000 0.85
-86.410661 16.047694 704.000000 0.85
-86.287919 17.257584 703.000000 0.85
-85.428722 18.306155 696.000000 0.85
-85.060494 19.442399 693.000000 0.85
-84.446782 20.508504 688.000000 0.85
-84.324040 21.683325 687.000000 0.85
-84.201298 22.854638 686.000000 0.85
-83.833070 23.952306 683.000000 0.85
-83.710328 25.113098 682.000000 0.85
-83.464843 26.231808 680.000000 0.85
-83.464843 27.424163 680.000000 0.85
-83.219358 28.532351 678.000000 0.85
-82.851131 29.589690 675.000000 0.85
-82.482904 30.636507 672.000000 0.85
-82.360161 31.767491 671.000000 0.85
-82.237419 32.894968 670.000000 0.85
-82.237419 34.069788 670.000000 0.85
-81.991934 35.139400 668.000000 0.85
-81.869192 36.256356 667.000000 0.85
-81.746449 37.369805 666.000000 0.85
-81.378222 38.364019 663.000000 0.85
-81.255480 39.466947 662.000000 0.85
-81.132737 40.566369 661.000000 0.85
-81.132737 41.725408 661.000000 0.85
-80.764510 42.689812 658.000000 0.85
-80.641767 43.776959 657.000000 0.85
-80.641767 44.928985 657.000000 0.85
-80.641767 46.081010 657.000000 0.85
-80.641767 47.233035 657.000000 0.85
-80.641767 48.385060 657.000000 0.85
-80.764510 49.612485 658.000000 0.85
-80.764510 50.766263 658.000000 0.85
-81.255480 52.235665 662.000000 0.85
-81.255480 53.396458 662.000000 0.85
-81.378222 54.639663 663.000000 0.85
-81.378222 55.802209 663.000000 0.85
-81.378222 56.964755 663.000000 0.85
-81.378222 58.127301 663.000000 0.85
-81.378222 59.289847 663.000000 0.85
-81.500964 60.543574 664.000000 0.85
-81.746449 61.893740 666.000000 0.85
-374.097843 -10.843416 3092.000000 0.85
-377.485534 -5.470805 3120.000000 0.85
-377.485534 0.000000 3120.000000 0.85
-90.620726 1.313344 749.000000 0.85
-90.378748 2.619674 747.000000 0.85
-88.684903 3.855865 733.000000 0.85
-88.684903 5.141154 733.000000 0.85
-88.684903 6.426442 733.000000 0.85
-88.684903 7.711731 733.000000 0.85
-87.354024 8.862002 722.000000 0.85
-86.628090 10.043837 716.000000 0.85
-86.265124 11.251973 713.000000 0.85
-86.023146 12.467123 711.000000 0.85
-85.902157 13.694547 710.000000 0.85
-85.902157 14.939506 710.000000 0.85
-85.055234 16.024899 703.000000 0.85
-84.813256 17.208487 701.000000 0.85
-84.329300 18.332457 697.000000 0.85
-83.845345 19.442399 693.000000 0.85
-83.240400 20.508504 688.000000 0.85
-83.119411 21.683325 687.000000 0.85
-82.998422 22.854638 686.000000 0.85
-82.635455 23.952306 683.000000 0.85
-82.514466 25.113098 682.000000 0.85
-82.272488 26.231808 680.000000 0.85
-82.151499 27.383833 679.000000 0.85
-81.788532 28.448185 676.000000 0.85
-81.667543 29.589690 675.000000 0.85
-81.546554 30.727687 674.000000 0.85
-81.304577 31.814834 672.000000 0.85
-81.062599 32.894968 670.000000 0.85
-80.820621 33.968087 668.000000 0.85
-80.699632 35.086796 667.000000 0.85
-80.578643 36.201999 666.000000 0.85
-80.215676 37.201473 663.000000 0.85
-80.215676 38.364019 663.000000 0.85
-80.094687 39.466947 662.000000 0.85
-79.973698 40.566369 661.000000 0.85
-79.731720 41.599158 659.000000 0.85
-79.610731 42.689812 658.000000 0.85
-79.489742 43.776959 657.000000 0.85
-79.489742 44.928985 657.000000 0.85
-79.489742 46.081010 657.000000 0.85
-79.489742 47.233035 657.000000 0.85
-79.489742 48.385060 657.000000 0.85
-79.610731 49.612485 658.000000 0.85
-79.610731 50.766263 658.000000 0.85
-79.610731 51.920042 658.000000 0.85
-79.973698 53.315799 661.000000 0.85
-80.094687 54.557251 662.000000 0.85
-80.094687 55.718043 662.000000 0.85
-80.094687 56.878836 662.000000 0.85
-80.094687 58.039628 662.000000 0.85
-80.094687 59.200421 662.000000 0.85
-80.215676 60.452393 663.000000 0.85
-80.215676 61.614940 663.000000 0.85
-368.676135 -10.843416 3092.000000 0.85
-372.014729 -5.470805 3120.000000 0.85
-372.014729 0.000000 3120.000000 0.85
-89.307382 1.313344 749.000000 0.85
-89.068911 2.619674 747.000000 0.85
-89.068911 3.929511 747.000000 0.85
-87.399614 5.141154 733.000000 0.85
-87.399614 6.426442 733.000000 0.85
-87.399614 7.711731 733.000000 0.85
-86.088024 8.862002 722.000000 0.85
-85.372611 10.043837 716.000000 0.85
-85.014904 11.251973 713.000000 0.85
-84.776433 12.467123 711.000000 0.85
-84.657198 13.694547 710.000000 0.85
-84.657198 14.939506 710.000000 0.85
-83.584079 15.979309 701.000000 0.85
-83.464843 17.183938 700.000000 0.85
-83.107137 18.332457 697.000000 0.85
-82.630195 19.442399 693.000000 0.85
-82.034017 20.508504 688.000000 0.85
-81.914782 21.683325 687.000000 0.85
-81.557075 22.788006 684.000000 0.85
-81.437840 23.952306 683.000000 0.85
-81.318604 25.113098 682.000000 0.85
-81.080133 26.231808 680.000000 0.85
-80.960898 27.383833 679.000000 0.85
-80.603191 28.448185 676.000000 0.85
-80.483956 29.589690 675.000000 0.85
-80.364720 30.727687 674.000000 0.85
-80.126249 31.814834 672.000000 0.85
-79.887778 32.894968 670.000000 0.85
-79.649307 33.968087 668.000000 0.85
-79.530072 35.086796 667.000000 0.85
-79.410836 36.201999 666.000000 0.85
-79.053130 37.201473 663.000000 0.85
-79.053130 38.364019 663.000000 0.85
-78.933894 39.466947 662.000000 0.85
-78.456952 40.382255 658.000000 0.85
-78.456952 41.536034 658.000000 0.85
-78.337717 42.624934 657.000000 0.85
-78.337717 43.776959 657.000000 0.85
-78.337717 44.928985 657.000000 0.85
-78.337717 46.081010 657.000000 0.85
-78.337717 47.233035 657.000000 0.85
-78.337717 48.385060 657.000000 0.85
-78.337717 49.537086 657.000000 0.85
-78.337717 50.689111 657.000000 0.85
-78.337717 51.841136 657.000000 0.85
-78.456952 53.073821 658.000000 0.85
-78.456952 54.227600 658.000000 0.85
-78.814659 55.633877 661.000000 0.85
-78.814659 56.792916 661.000000 0.85
-78.933894 58.039628 662.000000 0.85
-78.933894 59.200421 662.000000 0.85
-78.933894 60.361213 662.000000 0.85
-78.933894 61.522006 662.000000 0.85
-78.933894 62.682799 662.000000 0.85
-363.254427 -10.843416 3092.000000 0.85
-366.543924 -5.470805 3120.000000 0.85
-366.543924 0.000000 3120.000000 0.85
-87.994038 1.313344 749.000000 0.85
-87.994038 2.626688 749.000000 0.85
-87.759074 3.929511 747.000000 0.85
-87.759074 5.239348 747.000000 0.85
-87.641592 6.540417 746.000000 0.85
-87.641592 7.848501 746.000000 0.85
-87.994038 9.193407 749.000000 0.85
-83.882167 10.015781 714.000000 0.85
-83.764685 11.251973 713.000000 0.85
-83.529721 12.467123 711.000000 0.85
-83.412239 13.694547 710.000000 0.85
-83.177275 14.897422 708.000000 0.85
-82.237419 15.956514 700.000000 0.85
-82.002455 17.134841 698.000000 0.85
-81.767491 18.306155 696.000000 0.85
-81.415045 19.442399 693.000000 0.85
-81.062599 20.568122 690.000000 0.85
-80.710153 21.683325 687.000000 0.85
-80.357706 22.788006 684.000000 0.85
-80.240224 23.952306 683.000000 0.85
-80.122742 25.113098 682.000000 0.85
-79.887778 26.231808 680.000000 0.85
-79.770296 27.383833 679.000000 0.85
-79.417850 28.448185 676.000000 0.85
-79.300368 29.589690 675.000000 0.85
-78.947922 30.636507 672.000000 0.85
-78.830440 31.767491 671.000000 0.85
-78.712958 32.894968 670.000000 0.85
-78.360512 33.917237 667.000000 0.85
-78.360512 35.086796 667.000000 0.85
-78.008066 36.093284 664.000000 0.85
-77.890584 37.201473 663.000000 0.85
-77.773102 38.306155 662.000000 0.85
-77.655620 39.407329 661.000000 0.85
-77.185692 40.320884 657.000000 0.85
-77.185692 41.472909 657.000000 0.85
-77.185692 42.624934 657.000000 0.85
-77.185692 43.776959 657.000000 0.85
-77.185692 44.928985 657.000000 0.85
-77.185692 46.081010 657.000000 0.85
-77.185692 47.233035 657.000000 0.85
-76.950728 48.237770 655.000000 0.85
-76.950728 49.386288 655.000000 0.85
-77.185692 50.689111 657.000000 0.85
-77.185692 51.841136 657.000000 0.85
-77.185692 52.993161 657.000000 0.85
-77.185692 54.145187 657.000000 0.85
-77.185692 55.297212 657.000000 0.85
-77.185692 56.449237 657.000000 0.85
-77.303174 57.688936 658.000000 0.85
-77.303174 58.842714 658.000000 0.85
-77.303174 59.996493 658.000000 0.85
-77.303174 61.150272 658.000000 0.85
-77.303174 62.304050 658.000000 0.85
-77.303174 63.457829 658.000000 0.85
-357.832720 -10.843416 3092.000000 0.85
-86.680694 0.000000 749.000000 0.85
-86.680694 1.313344 749.000000 0.85
-86.680694 2.626688 749.000000 0.85
-86.449237 3.929511 747.000000 0.85
-86.449237 5.239348 747.000000 0.85
-86.680694 6.566719 749.000000 0.85
-86.680694 7.880063 749.000000 0.85
-86.680694 9.193407 749.000000 0.85
-82.630195 10.015781 714.000000 0.85
-82.514466 11.251973 713.000000 0.85
-82.283009 12.467123 711.000000 0.85
-82.167280 13.694547 710.000000 0.85
-81.472909 14.813256 704.000000 0.85
-80.662809 15.888129 697.000000 0.85
-80.662809 17.110293 697.000000 0.85
-80.315623 18.253551 694.000000 0.85
-80.199895 19.442399 693.000000 0.85
-79.968438 20.597931 691.000000 0.85
-79.621252 21.714887 688.000000 0.85
-79.389795 22.854638 686.000000 0.85
-79.042609 23.952306 683.000000 0.85
-78.926881 25.113098 682.000000 0.85
-78.695423 26.231808 680.000000 0.85
-78.463966 27.343503 678.000000 0.85
-78.232509 28.448185 676.000000 0.85
-78.001052 29.545853 674.000000 0.85
-77.769595 30.636507 672.000000 0.85
-77.653866 31.767491 671.000000 0.85
-77.538138 32.894968 670.000000 0.85
-77.190952 33.917237 667.000000 0.85
-77.190952 35.086796 667.000000 0.85
-76.843766 36.093284 664.000000 0.85
-76.728038 37.201473 663.000000 0.85
-76.612309 38.306155 662.000000 0.85
-76.496581 39.407329 661.000000 0.85
-76.033666 40.320884 657.000000 0.85
-76.033666 41.472909 657.000000 0.85
-76.033666 42.624934 657.000000 0.85
-76.033666 43.776959 657.000000 0.85
-76.033666 44.928985 657.000000 0.85
-76.033666 46.081010 657.000000 0.85
-76.033666 47.233035 657.000000 0.85
-75.802209 48.237770 655.000000 0.85
-75.802209 49.386288 655.000000 0.85
-76.033666 50.689111 657.000000 0.85
-76.033666 51.841136 657.000000 0.85
-76.033666 52.993161 657.000000 0.85
-76.033666 54.145187 657.000000 0.85
-76.033666 55.297212 657.000000 0.85
-76.033666 56.449237 657.000000 0.85
-76.033666 57.601262 657.000000 0.85
-76.033666 58.753288 657.000000 0.85
-76.033666 59.905313 657.000000 0.85
-76.149395 61.150272 658.000000 0.85
-76.149395 62.304050 658.000000 0.85
-76.149395 63.457829 658.000000 0.85
-76.149395 64.611608 658.000000 0.85
-85.937226 0.000000 754.000000 0.85
-85.937226 1.322111 754.000000 0.85
-85.709276 2.637208 752.000000 0.85
-85.481326 3.945292 750.000000 0.85
-85.481326 5.260389 750.000000 0.85
-85.481326 6.575487 750.000000 0.85
-85.481326 7.890584 750.000000 0.85
-85.481326 9.205681 750.000000 0.85
-81.378222 10.015781 714.000000 0.85
-81.264247 11.251973 713.000000 0.85
-81.036297 12.467123 711.000000 0.85
-80.922322 13.694547 710.000000 0.85
-80.238471 14.813256 704.000000 0.85
-79.098720 15.819744 694.000000 0.85
-78.984745 17.012099 693.000000 0.85
-78.984745 18.227249 693.000000 0.85
-78.756795 19.386288 691.000000 0.85
-78.756795 20.597931 691.000000 0.85
-78.414869 21.714887 688.000000 0.85
-78.186919 22.854638 686.000000 0.85
-77.844994 23.952306 683.000000 0.85
-77.731019 25.113098 682.000000 0.85
-77.503069 26.231808 680.000000 0.85
-77.275118 27.343503 678.000000 0.85
-76.933193 28.406102 675.000000 0.85
-76.591268 29.458180 672.000000 0.85
-76.477293 30.590917 671.000000 0.85
-76.363318 31.720147 670.000000 0.85
-76.021392 32.747677 667.000000 0.85
-76.021392 33.917237 667.000000 0.85
-76.021392 35.086796 667.000000 0.85
-75.907417 36.201999 666.000000 0.85
-75.907417 37.369805 666.000000 0.85
-75.451517 38.306155 662.000000 0.85
-75.337542 39.407329 661.000000 0.85
-74.995616 40.382255 658.000000 0.85
-74.881641 41.472909 657.000000 0.85
-74.881641 42.624934 657.000000 0.85
-74.881641 43.776959 657.000000 0.85
-74.653691 44.792215 655.000000 0.85
-74.653691 45.940733 655.000000 0.85
-74.653691 47.089251 655.000000 0.85
-74.653691 48.237770 655.000000 0.85
-74.653691 49.386288 655.000000 0.85
-74.653691 50.534806 655.000000 0.85
-74.653691 51.683325 655.000000 0.85
-74.653691 52.831843 655.000000 0.85
-74.653691 53.980361 655.000000 0.85
-74.653691 55.128880 655.000000 0.85
-74.653691 56.277398 655.000000 0.85
-74.653691 57.425916 655.000000 0.85
-74.653691 58.574435 655.000000 0.85
-74.881641 59.905313 657.000000 0.85
-74.881641 61.057338 657.000000 0.85
-74.995616 62.304050 658.000000 0.85
-74.995616 63.457829 658.000000 0.85
-74.995616 64.611608 658.000000 0.85
-74.881641 65.665439 657.000000 0.85
-84.727336 -1.323865 755.000000 0.85
-84.727336 0.000000 755.000000 0.85
-84.615115 1.322111 754.000000 0.85
-84.390672 2.637208 752.000000 0.85
-84.390672 3.955813 752.000000 0.85
-84.390672 5.274417 752.000000 0.85
-84.390672 6.593021 752.000000 0.85
-84.390672 7.911625 752.000000 0.85
-84.390672 9.230230 752.000000 0.85
-80.126249 10.015781 714.000000 0.85
-80.014028 11.251973 713.000000 0.85
-80.014028 12.502192 713.000000 0.85
-79.677363 13.694547 710.000000 0.85
-79.004033 14.813256 704.000000 0.85
-77.881817 15.819744 694.000000 0.85
-77.432930 16.938453 690.000000 0.85
-77.432930 18.148343 690.000000 0.85
-77.432930 19.358233 690.000000 0.85
-77.432930 20.568122 690.000000 0.85
-77.208487 21.714887 688.000000 0.85
-77.096265 22.887954 687.000000 0.85
-76.759600 23.987375 684.000000 0.85
-76.535157 25.113098 682.000000 0.85
-76.310714 26.231808 680.000000 0.85
-76.086270 27.343503 678.000000 0.85
-75.637384 28.364019 674.000000 0.85
-75.412941 29.458180 672.000000 0.85
-75.300719 30.590917 671.000000 0.85
-74.964054 31.625460 668.000000 0.85
-74.851832 32.747677 667.000000 0.85
-74.851832 33.917237 667.000000 0.85
-74.851832 35.086796 667.000000 0.85
-74.739611 36.201999 666.000000 0.85
-74.739611 37.369805 666.000000 0.85
-74.290724 38.306155 662.000000 0.85
-74.178503 39.407329 661.000000 0.85
-73.841838 40.382255 658.000000 0.85
-73.729616 41.472909 657.000000 0.85
-73.505173 42.495178 655.000000 0.85
-73.505173 43.643696 655.000000 0.85
-73.505173 44.792215 655.000000 0.85
-73.505173 45.940733 655.000000 0.85
-73.505173 47.089251 655.000000 0.85
-73.505173 48.237770 655.000000 0.85
-73.505173 49.386288 655.000000 0.85
-73.505173 50.534806 655.000000 0.85
-73.505173 51.683325 655.000000 0.85
-73.392951 52.751184 654.000000 0.85
