ply
format ascii 1.0
comment
element vertex 1269
property float32 x
property float32 y
property float32 z
property float intensity
element face 0
property list uchar int vertex_indices
end_header
-40.210416 53.613887 637.000000 0.85
-40.147291 54.644924 636.000000 0.85
-40.147291 55.760126 636.000000 0.85
-40.021042 56.696476 634.000000 0.85
-39.894792 57.625811 632.000000 0.85
-39.831668 58.641066 631.000000 0.85
-39.705418 59.558127 629.000000 0.85
-39.705418 60.661056 629.000000 0.85
-39.705418 61.763984 629.000000 0.85
-39.642294 62.766965 628.000000 0.85
-39.642294 63.868140 628.000000 0.85
-39.642294 64.969314 628.000000 0.85
-39.642294 66.070489 628.000000 0.85
-39.579169 67.064703 627.000000 0.85
-39.579169 68.164124 627.000000 0.85
-39.579169 69.263546 627.000000 0.85
-39.579169 70.362967 627.000000 0.85
-39.579169 71.462388 627.000000 0.85
-39.579169 72.561810 627.000000 0.85
-39.579169 73.661231 627.000000 0.85
-39.579169 74.760652 627.000000 0.85
-39.642294 75.981063 628.000000 0.85
-39.642294 77.082237 628.000000 0.85
-39.705418 78.307908 629.000000 0.85
-39.705418 79.410836 629.000000 0.85
-39.705418 80.513765 629.000000 0.85
-39.642294 81.486937 628.000000 0.85
-44.616868 54.815010 727.000000 0.85
-44.494126 55.935473 725.000000 0.85
-39.338944 50.578643 641.000000 0.85
-39.277573 51.621953 640.000000 0.85
-39.277573 52.744170 640.000000 0.85
-39.093460 53.613887 637.000000 0.85
-39.032088 54.644924 636.000000 0.85
-38.970717 55.672453 635.000000 0.85
-38.909346 56.696476 634.000000 0.85
-38.725232 57.534631 631.000000 0.85
-38.725232 58.641066 631.000000 0.85
-38.602490 59.558127 629.000000 0.85
-38.602490 60.661056 629.000000 0.85
-38.602490 61.763984 629.000000 0.85
-38.541119 62.766965 628.000000 0.85
-38.541119 63.868140 628.000000 0.85
-38.541119 64.969314 628.000000 0.85
-38.541119 66.070489 628.000000 0.85
-38.541119 67.171664 628.000000 0.85
-38.479748 68.164124 627.000000 0.85
-38.479748 69.263546 627.000000 0.85
-38.479748 70.362967 627.000000 0.85
-38.479748 71.462388 627.000000 0.85
-38.479748 72.561810 627.000000 0.85
-38.479748 73.661231 627.000000 0.85
-38.541119 74.879888 628.000000 0.85
-38.541119 75.981063 628.000000 0.85
-38.541119 77.082237 628.000000 0.85
-38.602490 78.307908 629.000000 0.85
-38.602490 79.410836 629.000000 0.85
-38.602490 80.513765 629.000000 0.85
-38.602490 81.616693 629.000000 0.85
-43.222865 54.664212 725.000000 0.85
-38.214975 49.454673 641.000000 0.85
-38.155357 50.499737 640.000000 0.85
-38.155357 51.621953 640.000000 0.85
-38.036121 52.579344 638.000000 0.85
-37.976504 53.613887 637.000000 0.85
-37.916886 54.644924 636.000000 0.85
-37.857268 55.672453 635.000000 0.85
-37.797650 56.696476 634.000000 0.85
-37.618797 57.534631 631.000000 0.85
-37.618797 58.641066 631.000000 0.85
-37.559179 59.652814 630.000000 0.85
-37.499562 60.661056 629.000000 0.85
-37.499562 61.763984 629.000000 0.85
-37.439944 62.766965 628.000000 0.85
-37.439944 63.868140 628.000000 0.85
-37.439944 64.969314 628.000000 0.85
-37.439944 66.070489 628.000000 0.85
-37.439944 67.171664 628.000000 0.85
-37.439944 68.272839 628.000000 0.85
-37.439944 69.374014 628.000000 0.85
-37.380326 70.362967 627.000000 0.85
-37.380326 71.462388 627.000000 0.85
-37.380326 72.561810 627.000000 0.85
-37.380326 73.661231 627.000000 0.85
-37.439944 74.879888 628.000000 0.85
-37.439944 75.981063 628.000000 0.85
-37.499562 77.204980 629.000000 0.85
-37.499562 78.307908 629.000000 0.85
-37.499562 79.410836 629.000000 0.85
-37.499562 80.513765 629.000000 0.85
-42.125197 53.613887 728.000000 0.85
-41.951604 54.664212 725.000000 0.85
-37.091005 49.454673 641.000000 0.85
-37.033140 50.499737 640.000000 0.85
-37.033140 51.621953 640.000000 0.85
-36.917412 52.579344 638.000000 0.85
-36.859548 53.613887 637.000000 0.85
-36.801683 54.644924 636.000000 0.85
-36.743819 55.672453 635.000000 0.85
-36.685955 56.696476 634.000000 0.85
-36.512362 57.534631 631.000000 0.85
-36.512362 58.641066 631.000000 0.85
-36.454498 59.652814 630.000000 0.85
-36.396633 60.661056 629.000000 0.85
-36.396633 61.763984 629.000000 0.85
-36.338769 62.766965 628.000000 0.85
-36.338769 63.868140 628.000000 0.85
-36.338769 64.969314 628.000000 0.85
-36.338769 66.070489 628.000000 0.85
-36.338769 67.171664 628.000000 0.85
-36.338769 68.272839 628.000000 0.85
-36.338769 69.374014 628.000000 0.85
-36.338769 70.475188 628.000000 0.85
-36.338769 71.576363 628.000000 0.85
-36.338769 72.677538 628.000000 0.85
-36.338769 73.778713 628.000000 0.85
-36.338769 74.879888 628.000000 0.85
-36.396633 76.102052 629.000000 0.85
-36.396633 77.204980 629.000000 0.85
-36.396633 78.307908 629.000000 0.85
-36.454498 79.537086 630.000000 0.85
-36.454498 80.641767 630.000000 0.85
-40.848676 52.337366 728.000000 0.85
-40.792565 53.540242 727.000000 0.85
-35.910924 48.255304 640.000000 0.85
-35.910924 49.377521 640.000000 0.85
-35.910924 50.499737 640.000000 0.85
-35.910924 51.621953 640.000000 0.85
-35.798702 52.579344 638.000000 0.85
-35.742592 53.613887 637.000000 0.85
-35.686481 54.644924 636.000000 0.85
-35.630370 55.672453 635.000000 0.85
-35.574259 56.696476 634.000000 0.85
-35.405927 57.534631 631.000000 0.85
-35.405927 58.641066 631.000000 0.85
-35.349816 59.652814 630.000000 0.85
-35.349816 60.757496 630.000000 0.85
-35.293705 61.763984 629.000000 0.85
-35.293705 62.866912 629.000000 0.85
-35.237594 63.868140 628.000000 0.85
-35.237594 64.969314 628.000000 0.85
-35.237594 66.070489 628.000000 0.85
-35.237594 67.171664 628.000000 0.85
-35.237594 68.272839 628.000000 0.85
-35.237594 69.374014 628.000000 0.85
-35.237594 70.475188 628.000000 0.85
-35.237594 71.576363 628.000000 0.85
-35.237594 72.677538 628.000000 0.85
-35.293705 73.896195 629.000000 0.85
-35.293705 74.999123 629.000000 0.85
-35.293705 76.102052 629.000000 0.85
-35.293705 77.204980 629.000000 0.85
-35.349816 78.432404 630.000000 0.85
-35.349816 79.537086 630.000000 0.85
-35.349816 80.641767 630.000000 0.85
-39.572155 52.337366 728.000000 0.85
-34.897422 47.280379 642.000000 0.85
-34.788708 48.255304 640.000000 0.85
-34.788708 49.377521 640.000000 0.85
-34.788708 50.499737 640.000000 0.85
-34.788708 51.621953 640.000000 0.85
-34.679993 52.579344 638.000000 0.85
-34.625636 53.613887 637.000000 0.85
-34.571278 54.644924 636.000000 0.85
-34.516921 55.672453 635.000000 0.85
-34.353849 56.517622 632.000000 0.85
-34.299491 57.534631 631.000000 0.85
-34.299491 58.641066 631.000000 0.85
-34.245134 59.652814 630.000000 0.85
-34.245134 60.757496 630.000000 0.85
-34.190777 61.763984 629.000000 0.85
-34.190777 62.866912 629.000000 0.85
-34.136419 63.868140 628.000000 0.85
-34.136419 64.969314 628.000000 0.85
-34.136419 66.070489 628.000000 0.85
-34.136419 67.171664 628.000000 0.85
-34.136419 68.272839 628.000000 0.85
-34.136419 69.374014 628.000000 0.85
-34.136419 70.475188 628.000000 0.85
-34.136419 71.576363 628.000000 0.85
-34.136419 72.677538 628.000000 0.85
-34.190777 73.896195 629.000000 0.85
-34.190777 74.999123 629.000000 0.85
-34.190777 76.102052 629.000000 0.85
-34.190777 77.204980 629.000000 0.85
-34.245134 78.432404 630.000000 0.85
-34.245134 79.537086 630.000000 0.85
-34.245134 80.641767 630.000000 0.85
-38.295634 52.337366 728.000000 0.85
-33.719095 47.206733 641.000000 0.85
-33.719095 48.330703 641.000000 0.85
-33.719095 49.454673 641.000000 0.85
-33.666491 50.499737 640.000000 0.85
-33.666491 51.621953 640.000000 0.85
-33.561284 52.579344 638.000000 0.85
-33.508680 53.613887 637.000000 0.85
-33.456076 54.644924 636.000000 0.85
-33.403472 55.672453 635.000000 0.85
-33.245660 56.517622 632.000000 0.85
-33.193056 57.534631 631.000000 0.85
-33.193056 58.641066 631.000000 0.85
-33.140452 59.652814 630.000000 0.85
-33.140452 60.757496 630.000000 0.85
-33.140452 61.862178 630.000000 0.85
-33.087849 62.866912 629.000000 0.85
-33.087849 63.969840 629.000000 0.85
-33.087849 65.072769 629.000000 0.85
-33.035245 66.070489 628.000000 0.85
-33.035245 67.171664 628.000000 0.85
-33.035245 68.272839 628.000000 0.85
-33.035245 69.374014 628.000000 0.85
-33.035245 70.475188 628.000000 0.85
-33.035245 71.576363 628.000000 0.85
-33.087849 72.793267 629.000000 0.85
-33.087849 73.896195 629.000000 0.85
-33.087849 74.999123 629.000000 0.85
-33.087849 76.102052 629.000000 0.85
-33.140452 77.327722 630.000000 0.85
-33.140452 78.432404 630.000000 0.85
-33.140452 79.537086 630.000000 0.85
-37.019113 52.337366 728.000000 0.85
-32.595125 47.206733 641.000000 0.85
-32.595125 48.330703 641.000000 0.85
-32.544275 49.377521 640.000000 0.85
-32.544275 50.499737 640.000000 0.85
-32.442574 51.460635 638.000000 0.85
-32.391724 52.496931 637.000000 0.85
-32.391724 53.613887 637.000000 0.85
-32.340873 54.644924 636.000000 0.85
-32.290023 55.672453 635.000000 0.85
-32.137472 56.517622 632.000000 0.85
-32.137472 57.625811 632.000000 0.85
-32.137472 58.734000 632.000000 0.85
-32.086621 59.747501 631.000000 0.85
-32.035771 60.757496 630.000000 0.85
-32.035771 61.862178 630.000000 0.85
-31.984920 62.866912 629.000000 0.85
-31.984920 63.969840 629.000000 0.85
-31.984920 65.072769 629.000000 0.85
-31.934070 66.070489 628.000000 0.85
-31.934070 67.171664 628.000000 0.85
-31.934070 68.272839 628.000000 0.85
-31.934070 69.374014 628.000000 0.85
-31.934070 70.475188 628.000000 0.85
-31.934070 71.576363 628.000000 0.85
-31.984920 72.793267 629.000000 0.85
-31.984920 73.896195 629.000000 0.85
-31.984920 74.999123 629.000000 0.85
-31.984920 76.102052 629.000000 0.85
-32.035771 77.327722 630.000000 0.85
-32.035771 78.432404 630.000000 0.85
-32.035771 79.537086 630.000000 0.85
-35.889883 51.271261 731.000000 0.85
-35.840786 52.481150 730.000000 0.85
-31.471156 47.206733 641.000000 0.85
-31.471156 48.330703 641.000000 0.85
-31.422059 49.377521 640.000000 0.85
-31.422059 50.499737 640.000000 0.85
-31.323865 51.460635 638.000000 0.85
-31.274768 52.496931 637.000000 0.85
-31.274768 53.613887 637.000000 0.85
-31.225671 54.644924 636.000000 0.85
-31.176574 55.672453 635.000000 0.85
-31.029283 56.517622 632.000000 0.85
-30.980186 57.534631 631.000000 0.85
-30.980186 58.641066 631.000000 0.85
-30.980186 59.747501 631.000000 0.85
-30.931089 60.757496 630.000000 0.85
-30.931089 61.862178 630.000000 0.85
-30.881992 62.866912 629.000000 0.85
-30.881992 63.969840 629.000000 0.85
-30.881992 65.072769 629.000000 0.85
-30.881992 66.175697 629.000000 0.85
-30.881992 67.278625 629.000000 0.85
-30.881992 68.381554 629.000000 0.85
-30.881992 69.484482 629.000000 0.85
-30.881992 70.587410 629.000000 0.85
-30.881992 71.690338 629.000000 0.85
-30.881992 72.793267 629.000000 0.85
-30.881992 73.896195 629.000000 0.85
-30.931089 75.118359 630.000000 0.85
-30.931089 76.223041 630.000000 0.85
-30.980186 77.450465 631.000000 0.85
-30.980186 78.556900 631.000000 0.85
-30.980186 79.663335 631.000000 0.85
-34.702788 50.126249 733.000000 0.85
-34.608101 51.271261 731.000000 0.85
-30.441873 46.226547 643.000000 0.85
-30.394529 47.280379 642.000000 0.85
-30.347186 48.330703 641.000000 0.85
-30.299842 49.377521 640.000000 0.85
-30.299842 50.499737 640.000000 0.85
-30.205155 51.460635 638.000000 0.85
-30.157812 52.496931 637.000000 0.85
-30.157812 53.613887 637.000000 0.85
-30.110468 54.644924 636.000000 0.85
-30.110468 55.760126 636.000000 0.85
-29.921094 56.517622 632.000000 0.85
-29.873751 57.534631 631.000000 0.85
-29.873751 58.641066 631.000000 0.85
-29.873751 59.747501 631.000000 0.85
-29.826407 60.757496 630.000000 0.85
-29.826407 61.862178 630.000000 0.85
-29.826407 62.966860 630.000000 0.85
-29.779064 63.969840 629.000000 0.85
-29.779064 65.072769 629.000000 0.85
-29.779064 66.175697 629.000000 0.85
-29.779064 67.278625 629.000000 0.85
-29.779064 68.381554 629.000000 0.85
-29.779064 69.484482 629.000000 0.85
-29.779064 70.587410 629.000000 0.85
-29.779064 71.690338 629.000000 0.85
-29.779064 72.793267 629.000000 0.85
-29.779064 73.896195 629.000000 0.85
-29.779064 74.999123 629.000000 0.85
-29.826407 76.223041 630.000000 0.85
-29.873751 77.450465 631.000000 0.85
-29.873751 78.556900 631.000000 0.85
-29.873751 79.663335 631.000000 0.85
-33.463090 50.194634 734.000000 0.85
-29.451166 45.309486 646.000000 0.85
-29.314396 46.226547 643.000000 0.85
-29.268806 47.280379 642.000000 0.85
-29.223216 48.330703 641.000000 0.85
-29.223216 49.454673 641.000000 0.85
-29.177626 50.499737 640.000000 0.85
-29.086446 51.460635 638.000000 0.85
-29.040856 52.496931 637.000000 0.85
-29.040856 53.613887 637.000000 0.85
-28.995266 54.644924 636.000000 0.85
-28.995266 55.760126 636.000000 0.85
-28.949676 56.785902 635.000000 0.85
-28.904086 57.808171 634.000000 0.85
-28.812905 58.734000 632.000000 0.85
-28.767315 59.747501 631.000000 0.85
-28.767315 60.853937 631.000000 0.85
-28.721725 61.862178 630.000000 0.85
-28.721725 62.966860 630.000000 0.85
-28.676135 63.969840 629.000000 0.85
-28.676135 65.072769 629.000000 0.85
-28.676135 66.175697 629.000000 0.85
-28.676135 67.278625 629.000000 0.85
-28.676135 68.381554 629.000000 0.85
-28.676135 69.484482 629.000000 0.85
-28.676135 70.587410 629.000000 0.85
-28.676135 71.690338 629.000000 0.85
-28.676135 72.793267 629.000000 0.85
-28.676135 73.896195 629.000000 0.85
-28.676135 74.999123 629.000000 0.85
-28.767315 76.344029 631.000000 0.85
-28.767315 77.450465 631.000000 0.85
-28.767315 78.556900 631.000000 0.85
-28.812905 79.789584 632.000000 0.85
-32.176048 50.194634 734.000000 0.85
-28.318429 45.309486 646.000000 0.85
-28.186919 46.226547 643.000000 0.85
-28.143083 47.280379 642.000000 0.85
-28.099246 48.330703 641.000000 0.85
-28.099246 49.454673 641.000000 0.85
-28.055409 50.499737 640.000000 0.85
-27.967736 51.460635 638.000000 0.85
-27.923900 52.496931 637.000000 0.85
-27.880063 53.529721 636.000000 0.85
-27.880063 54.644924 636.000000 0.85
-27.836227 55.672453 635.000000 0.85
-27.836227 56.785902 635.000000 0.85
-27.792390 57.808171 634.000000 0.85
-27.704717 58.734000 632.000000 0.85
-27.660880 59.747501 631.000000 0.85
-27.660880 60.853937 631.000000 0.85
-27.617044 61.862178 630.000000 0.85
-27.617044 62.966860 630.000000 0.85
-27.617044 64.071541 630.000000 0.85
-27.617044 65.176223 630.000000 0.85
-27.573207 66.175697 629.000000 0.85
-27.573207 67.278625 629.000000 0.85
-27.573207 68.381554 629.000000 0.85
-27.573207 69.484482 629.000000 0.85
-27.573207 70.587410 629.000000 0.85
-27.617044 71.804314 630.000000 0.85
-27.617044 72.908995 630.000000 0.85
-27.617044 74.013677 630.000000 0.85
-27.660880 75.237594 631.000000 0.85
-27.660880 76.344029 631.000000 0.85
-27.660880 77.450465 631.000000 0.85
-27.660880 78.556900 631.000000 0.85
-30.889006 50.194634 734.000000 0.85
-27.101526 45.169209 644.000000 0.85
-27.101526 46.298439 644.000000 0.85
-27.059442 47.354024 643.000000 0.85
-27.017359 48.406102 642.000000 0.85
-27.017359 49.531825 642.000000 0.85
-26.933193 50.499737 640.000000 0.85
-26.849027 51.460635 638.000000 0.85
-26.806944 52.496931 637.000000 0.85
-26.764861 53.529721 636.000000 0.85
-26.764861 54.644924 636.000000 0.85
-26.722777 55.672453 635.000000 0.85
-26.680694 56.696476 634.000000 0.85
-26.680694 57.808171 634.000000 0.85
-26.596528 58.734000 632.000000 0.85
-26.596528 59.842188 632.000000 0.85
-26.554445 60.853937 631.000000 0.85
-26.554445 61.960372 631.000000 0.85
-26.512362 62.966860 630.000000 0.85
-26.512362 64.071541 630.000000 0.85
-26.512362 65.176223 630.000000 0.85
-26.470279 66.175697 629.000000 0.85
-26.470279 67.278625 629.000000 0.85
-26.470279 68.381554 629.000000 0.85
-26.470279 69.484482 629.000000 0.85
-26.512362 70.699632 630.000000 0.85
-26.512362 71.804314 630.000000 0.85
-26.512362 72.908995 630.000000 0.85
-26.512362 74.013677 630.000000 0.85
-26.554445 75.237594 631.000000 0.85
-26.554445 76.344029 631.000000 0.85
-26.596528 77.573207 632.000000 0.85
-29.601964 50.194634 734.000000 0.85
-25.972295 45.169209 644.000000 0.85
-25.931966 46.226547 643.000000 0.85
-25.931966 47.354024 643.000000 0.85
-25.891636 48.406102 642.000000 0.85
-25.851306 49.454673 641.000000 0.85
-25.810977 50.499737 640.000000 0.85
-25.730317 51.460635 638.000000 0.85
-25.689988 52.496931 637.000000 0.85
-25.649658 53.529721 636.000000 0.85
-25.649658 54.644924 636.000000 0.85
-25.609328 55.672453 635.000000 0.85
-25.568999 56.696476 634.000000 0.85
-25.568999 57.808171 634.000000 0.85
-25.488339 58.734000 632.000000 0.85
-25.488339 59.842188 632.000000 0.85
-25.448010 60.853937 631.000000 0.85
-25.448010 61.960372 631.000000 0.85
-25.407680 62.966860 630.000000 0.85
-25.407680 64.071541 630.000000 0.85
-25.407680 65.176223 630.000000 0.85
-25.407680 66.280905 630.000000 0.85
-25.407680 67.385587 630.000000 0.85
-25.407680 68.490268 630.000000 0.85
-25.407680 69.594950 630.000000 0.85
-25.407680 70.699632 630.000000 0.85
-25.407680 71.804314 630.000000 0.85
-25.407680 72.908995 630.000000 0.85
-25.448010 74.131159 631.000000 0.85
-25.448010 75.237594 631.000000 0.85
-25.488339 76.465018 632.000000 0.85
-25.488339 77.573207 632.000000 0.85
-28.392074 49.040856 736.000000 0.85
-28.392074 50.331405 736.000000 0.85
-24.843065 45.169209 644.000000 0.85
-24.804489 46.226547 643.000000 0.85
-24.804489 47.354024 643.000000 0.85
-24.765913 48.406102 642.000000 0.85
-24.727336 49.454673 641.000000 0.85
-24.688760 50.499737 640.000000 0.85
-24.611608 51.460635 638.000000 0.85
-24.573032 52.496931 637.000000 0.85
-24.534456 53.529721 636.000000 0.85
-24.495879 54.559004 635.000000 0.85
-24.495879 55.672453 635.000000 0.85
-24.457303 56.696476 634.000000 0.85
-24.457303 57.808171 634.000000 0.85
-24.380151 58.734000 632.000000 0.85
-24.380151 59.842188 632.000000 0.85
-24.341575 60.853937 631.000000 0.85
-24.341575 61.960372 631.000000 0.85
-24.302998 62.966860 630.000000 0.85
-24.302998 64.071541 630.000000 0.85
-24.302998 65.176223 630.000000 0.85
-24.302998 66.280905 630.000000 0.85
-24.302998 67.385587 630.000000 0.85
-24.302998 68.490268 630.000000 0.85
-24.302998 69.594950 630.000000 0.85
-24.302998 70.699632 630.000000 0.85
-24.302998 71.804314 630.000000 0.85
-24.341575 73.024724 631.000000 0.85
-24.341575 74.131159 631.000000 0.85
-24.380151 75.356830 632.000000 0.85
-24.380151 76.465018 632.000000 0.85
-24.380151 77.573207 632.000000 0.85
-27.101526 49.040856 736.000000 0.85
-23.787480 44.176749 646.000000 0.85
-23.713835 45.169209 644.000000 0.85
-23.713835 46.298439 644.000000 0.85
-23.713835 47.427670 644.000000 0.85
-23.640189 48.406102 642.000000 0.85
-23.640189 49.531825 642.000000 0.85
-23.566544 50.499737 640.000000 0.85
-23.492898 51.460635 638.000000 0.85
-23.456076 52.496931 637.000000 0.85
-23.419253 53.529721 636.000000 0.85
-23.382430 54.559004 635.000000 0.85
-23.382430 55.672453 635.000000 0.85
-23.345608 56.696476 634.000000 0.85
-23.345608 57.808171 634.000000 0.85
-23.271962 58.734000 632.000000 0.85
-23.271962 59.842188 632.000000 0.85
-23.235139 60.853937 631.000000 0.85
-23.235139 61.960372 631.000000 0.85
-23.235139 63.066807 631.000000 0.85
-23.198317 64.071541 630.000000 0.85
-23.198317 65.176223 630.000000 0.85
-23.198317 66.280905 630.000000 0.85
-23.198317 67.385587 630.000000 0.85
-23.198317 68.490268 630.000000 0.85
-23.198317 69.594950 630.000000 0.85
-23.198317 70.699632 630.000000 0.85
-23.198317 71.804314 630.000000 0.85
-23.235139 73.024724 631.000000 0.85
-23.271962 74.248641 632.000000 0.85
-23.271962 75.356830 632.000000 0.85
-23.345608 76.706996 634.000000 0.85
-23.345608 77.818692 634.000000 0.85
-25.810977 49.040856 736.000000 0.85
-22.584605 44.039979 644.000000 0.85
-22.549535 45.099071 643.000000 0.85
-22.514466 46.154655 642.000000 0.85
-22.514466 47.280379 642.000000 0.85
-22.514466 48.406102 642.000000 0.85
-22.479397 49.454673 641.000000 0.85
-22.444328 50.499737 640.000000 0.85
-22.374189 51.460635 638.000000 0.85
-22.339120 52.496931 637.000000 0.85
-22.304050 53.529721 636.000000 0.85
-22.268981 54.559004 635.000000 0.85
-22.268981 55.672453 635.000000 0.85
-22.233912 56.696476 634.000000 0.85
-22.233912 57.808171 634.000000 0.85
-22.163773 58.734000 632.000000 0.85
-22.163773 59.842188 632.000000 0.85
-22.163773 60.950377 632.000000 0.85
-22.128704 61.960372 631.000000 0.85
-22.128704 63.066807 631.000000 0.85
-22.128704 64.173242 631.000000 0.85
-22.128704 65.279677 631.000000 0.85
-22.128704 66.386113 631.000000 0.85
-22.093635 67.385587 630.000000 0.85
-22.093635 68.490268 630.000000 0.85
-22.093635 69.594950 630.000000 0.85
-22.128704 70.811853 631.000000 0.85
-22.128704 71.918289 631.000000 0.85
-22.128704 73.024724 631.000000 0.85
-22.163773 74.248641 632.000000 0.85
-22.233912 75.595301 634.000000 0.85
-22.233912 76.706996 634.000000 0.85
-22.233912 77.818692 634.000000 0.85
-24.620375 49.240750 739.000000 0.85
-21.455374 44.039979 644.000000 0.85
-21.422059 45.099071 643.000000 0.85
-21.388743 46.154655 642.000000 0.85
-21.388743 47.280379 642.000000 0.85
-21.388743 48.406102 642.000000 0.85
-21.355427 49.454673 641.000000 0.85
-21.322111 50.499737 640.000000 0.85
-21.255480 51.460635 638.000000 0.85
-21.222164 52.496931 637.000000 0.85
-21.222164 53.613887 637.000000 0.85
-21.155532 54.559004 635.000000 0.85
-21.155532 55.672453 635.000000 0.85
-21.122216 56.696476 634.000000 0.85
-21.055585 57.625811 632.000000 0.85
-21.055585 58.734000 632.000000 0.85
-21.055585 59.842188 632.000000 0.85
-21.055585 60.950377 632.000000 0.85
-21.055585 62.058566 632.000000 0.85
-21.022269 63.066807 631.000000 0.85
-21.022269 64.173242 631.000000 0.85
-21.022269 65.279677 631.000000 0.85
-21.022269 66.386113 631.000000 0.85
-21.022269 67.492548 631.000000 0.85
-21.022269 68.598983 631.000000 0.85
-21.022269 69.705418 631.000000 0.85
-21.022269 70.811853 631.000000 0.85
-21.055585 72.032264 632.000000 0.85
-21.055585 73.140452 632.000000 0.85
-21.055585 74.248641 632.000000 0.85
-21.122216 75.595301 634.000000 0.85
-21.122216 76.706996 634.000000 0.85
-21.122216 77.818692 634.000000 0.85
-23.324566 49.240750 739.000000 0.85
-20.326144 44.039979 644.000000 0.85
-20.294582 45.099071 643.000000 0.85
-20.294582 46.226547 643.000000 0.85
-20.294582 47.354024 643.000000 0.85
-20.263019 48.406102 642.000000 0.85
-20.231457 49.454673 641.000000 0.85
-20.199895 50.499737 640.000000 0.85
-20.105208 51.379975 637.000000 0.85
-20.073645 52.414519 636.000000 0.85
-20.073645 53.529721 636.000000 0.85
-20.073645 54.644924 636.000000 0.85
-20.042083 55.672453 635.000000 0.85
-19.947396 56.517622 632.000000 0.85
-19.915834 57.534631 631.000000 0.85
-19.915834 58.641066 631.000000 0.85
-19.915834 59.747501 631.000000 0.85
-19.915834 60.853937 631.000000 0.85
-19.915834 61.960372 631.000000 0.85
-19.884271 62.966860 630.000000 0.85
-19.884271 64.071541 630.000000 0.85
-19.884271 65.176223 630.000000 0.85
-19.915834 66.386113 631.000000 0.85
-19.915834 67.492548 631.000000 0.85
-19.915834 68.598983 631.000000 0.85
-19.915834 69.705418 631.000000 0.85
-19.915834 70.811853 631.000000 0.85
-19.915834 71.918289 631.000000 0.85
-19.947396 73.140452 632.000000 0.85
-19.947396 74.248641 632.000000 0.85
-20.010521 75.595301 634.000000 0.85
-20.010521 76.706996 634.000000 0.85
-20.010521 77.818692 634.000000 0.85
-22.088375 49.374014 741.000000 0.85
-19.196914 44.039979 644.000000 0.85
-19.196914 45.169209 644.000000 0.85
-19.167105 46.226547 643.000000 0.85
-19.167105 47.354024 643.000000 0.85
-19.107487 48.330703 641.000000 0.85
-19.077678 49.377521 640.000000 0.85
-19.018061 50.341925 638.000000 0.85
-18.988252 51.379975 637.000000 0.85
-18.958443 52.414519 636.000000 0.85
-18.958443 53.529721 636.000000 0.85
-18.958443 54.644924 636.000000 0.85
-18.928634 55.672453 635.000000 0.85
-18.839207 56.517622 632.000000 0.85
-18.809399 57.534631 631.000000 0.85
-18.809399 58.641066 631.000000 0.85
-18.809399 59.747501 631.000000 0.85
-18.809399 60.853937 631.000000 0.85
-18.809399 61.960372 631.000000 0.85
-18.779590 62.966860 630.000000 0.85
-18.779590 64.071541 630.000000 0.85
-18.779590 65.176223 630.000000 0.85
-18.809399 66.386113 631.000000 0.85
-18.809399 67.492548 631.000000 0.85
-18.809399 68.598983 631.000000 0.85
-18.809399 69.705418 631.000000 0.85
-18.809399 70.811853 631.000000 0.85
-18.809399 71.918289 631.000000 0.85
-18.839207 73.140452 632.000000 0.85
-18.839207 74.248641 632.000000 0.85
-18.898825 75.595301 634.000000 0.85
-18.898825 76.706996 634.000000 0.85
-18.898825 77.818692 634.000000 0.85
-20.789058 49.374014 741.000000 0.85
-18.151850 44.245134 647.000000 0.85
-18.067684 45.169209 644.000000 0.85
-18.039628 46.226547 643.000000 0.85
-18.039628 47.354024 643.000000 0.85
-17.983517 48.330703 641.000000 0.85
-17.955462 49.377521 640.000000 0.85
-17.899351 50.341925 638.000000 0.85
-17.871296 51.379975 637.000000 0.85
-17.843240 52.414519 636.000000 0.85
-17.843240 53.529721 636.000000 0.85
-17.843240 54.644924 636.000000 0.85
-17.815185 55.672453 635.000000 0.85
-17.787130 56.696476 634.000000 0.85
-17.731019 57.625811 632.000000 0.85
-17.702963 58.641066 631.000000 0.85
-17.702963 59.747501 631.000000 0.85
-17.702963 60.853937 631.000000 0.85
-17.702963 61.960372 631.000000 0.85
-17.702963 63.066807 631.000000 0.85
-17.702963 64.173242 631.000000 0.85
-17.702963 65.279677 631.000000 0.85
-17.702963 66.386113 631.000000 0.85
-17.702963 67.492548 631.000000 0.85
-17.702963 68.598983 631.000000 0.85
-17.702963 69.705418 631.000000 0.85
-17.702963 70.811853 631.000000 0.85
-17.731019 72.032264 632.000000 0.85
-17.787130 73.371910 634.000000 0.85
-17.787130 74.483605 634.000000 0.85
-17.787130 75.595301 634.000000 0.85
-17.815185 76.827985 635.000000 0.85
-17.815185 77.941434 635.000000 0.85
-19.489742 48.074698 741.000000 0.85
-19.489742 49.374014 741.000000 0.85
-17.017359 44.245134 647.000000 0.85
-16.938453 45.169209 644.000000 0.85
-16.938453 46.298439 644.000000 0.85
-16.912151 47.354024 643.000000 0.85
-16.859548 48.330703 641.000000 0.85
-16.833246 49.377521 640.000000 0.85
-16.780642 50.341925 638.000000 0.85
-16.754340 51.379975 637.000000 0.85
-16.728038 52.414519 636.000000 0.85
-16.728038 53.529721 636.000000 0.85
-16.728038 54.644924 636.000000 0.85
-16.701736 55.672453 635.000000 0.85
-16.701736 56.785902 635.000000 0.85
-16.675434 57.808171 634.000000 0.85
-16.622830 58.734000 632.000000 0.85
-16.622830 59.842188 632.000000 0.85
-16.622830 60.950377 632.000000 0.85
-16.596528 61.960372 631.000000 0.85
-16.596528 63.066807 631.000000 0.85
-16.596528 64.173242 631.000000 0.85
-16.596528 65.279677 631.000000 0.85
-16.596528 66.386113 631.000000 0.85
-16.596528 67.492548 631.000000 0.85
-16.596528 68.598983 631.000000 0.85
-16.596528 69.705418 631.000000 0.85
-16.622830 70.924075 632.000000 0.85
-16.622830 72.032264 632.000000 0.85
-16.675434 73.371910 634.000000 0.85
-16.675434 74.483605 634.000000 0.85
-16.675434 75.595301 634.000000 0.85
-16.701736 76.827985 635.000000 0.85
-16.701736 77.941434 635.000000 0.85
-18.141329 47.944941 739.000000 0.85
-15.907417 43.177275 648.000000 0.85
-15.882869 44.245134 647.000000 0.85
-15.809223 45.169209 644.000000 0.85
-15.809223 46.298439 644.000000 0.85
-15.784675 47.354024 643.000000 0.85
-15.735578 48.330703 641.000000 0.85
-15.735578 49.454673 641.000000 0.85
-15.661932 50.341925 638.000000 0.85
-15.637384 51.379975 637.000000 0.85
-15.637384 52.496931 637.000000 0.85
-15.612835 53.529721 636.000000 0.85
-15.612835 54.644924 636.000000 0.85
-15.588287 55.672453 635.000000 0.85
-15.588287 56.785902 635.000000 0.85
-15.563738 57.808171 634.000000 0.85
-15.514641 58.734000 632.000000 0.85
-15.514641 59.842188 632.000000 0.85
-15.514641 60.950377 632.000000 0.85
-15.490093 61.960372 631.000000 0.85
-15.490093 63.066807 631.000000 0.85
-15.490093 64.173242 631.000000 0.85
-15.490093 65.279677 631.000000 0.85
-15.490093 66.386113 631.000000 0.85
-15.490093 67.492548 631.000000 0.85
-15.490093 68.598983 631.000000 0.85
-15.514641 69.815886 632.000000 0.85
-15.514641 70.924075 632.000000 0.85
-15.563738 72.260214 634.000000 0.85
-15.588287 73.487638 635.000000 0.85
-15.588287 74.601087 635.000000 0.85
-15.588287 75.714536 635.000000 0.85
-15.588287 76.827985 635.000000 0.85
-16.845520 47.944941 739.000000 0.85
-14.771173 43.177275 648.000000 0.85
-14.748378 44.245134 647.000000 0.85
-14.679993 45.169209 644.000000 0.85
-14.679993 46.298439 644.000000 0.85
-14.657198 47.354024 643.000000 0.85
-14.634403 48.406102 642.000000 0.85
-14.611608 49.454673 641.000000 0.85
-14.543223 50.341925 638.000000 0.85
-14.520428 51.379975 637.000000 0.85
-14.520428 52.496931 637.000000 0.85
-14.520428 53.613887 637.000000 0.85
-14.497633 54.644924 636.000000 0.85
-14.497633 55.760126 636.000000 0.85
-14.474838 56.785902 635.000000 0.85
-14.452043 57.808171 634.000000 0.85
-14.406453 58.734000 632.000000 0.85
-14.406453 59.842188 632.000000 0.85
-14.406453 60.950377 632.000000 0.85
-14.383658 61.960372 631.000000 0.85
-14.383658 63.066807 631.000000 0.85
-14.383658 64.173242 631.000000 0.85
-14.383658 65.279677 631.000000 0.85
-14.406453 66.491320 632.000000 0.85
-14.406453 67.599509 632.000000 0.85
-14.406453 68.707698 632.000000 0.85
-14.406453 69.815886 632.000000 0.85
-14.452043 71.148518 634.000000 0.85
-14.474838 72.374189 635.000000 0.85
-14.474838 73.487638 635.000000 0.85
-14.474838 74.601087 635.000000 0.85
-14.474838 75.714536 635.000000 0.85
-14.474838 76.827985 635.000000 0.85
-15.549711 47.944941 739.000000 0.85
-13.634929 43.177275 648.000000 0.85
-13.613887 44.245134 647.000000 0.85
-13.592846 45.309486 646.000000 0.85
-13.550763 46.298439 644.000000 0.85
-13.529721 47.354024 643.000000 0.85
-13.529721 48.481501 643.000000 0.85
-13.487638 49.454673 641.000000 0.85
-13.424513 50.341925 638.000000 0.85
-13.403472 51.379975 637.000000 0.85
-13.403472 52.496931 637.000000 0.85
-13.403472 53.613887 637.000000 0.85
-13.382430 54.644924 636.000000 0.85
-13.382430 55.760126 636.000000 0.85
-13.361389 56.785902 635.000000 0.85
-13.340347 57.808171 634.000000 0.85
-13.298264 58.734000 632.000000 0.85
-13.298264 59.842188 632.000000 0.85
-13.277223 60.853937 631.000000 0.85
-13.277223 61.960372 631.000000 0.85
-13.277223 63.066807 631.000000 0.85
-13.277223 64.173242 631.000000 0.85
-13.277223 65.279677 631.000000 0.85
-13.277223 66.386113 631.000000 0.85
-13.298264 67.599509 632.000000 0.85
-13.340347 68.925127 634.000000 0.85
-13.340347 70.036823 634.000000 0.85
-13.340347 71.148518 634.000000 0.85
-13.361389 72.374189 635.000000 0.85
-13.361389 73.487638 635.000000 0.85
-13.361389 74.601087 635.000000 0.85
-13.361389 75.714536 635.000000 0.85
-13.382430 76.948974 636.000000 0.85
-14.253901 47.944941 739.000000 0.85
-12.479397 43.110644 647.000000 0.85
-12.479397 44.245134 647.000000 0.85
-12.460109 45.309486 646.000000 0.85
-12.421533 46.298439 644.000000 0.85
-12.402244 47.354024 643.000000 0.85
-12.382956 48.406102 642.000000 0.85
-12.363668 49.454673 641.000000 0.85
-12.305804 50.341925 638.000000 0.85
-12.286516 51.379975 637.000000 0.85
-12.286516 52.496931 637.000000 0.85
-12.267228 53.529721 636.000000 0.85
-12.267228 54.644924 636.000000 0.85
-12.267228 55.760126 636.000000 0.85
-12.247940 56.785902 635.000000 0.85
-12.228652 57.808171 634.000000 0.85
-12.190075 58.734000 632.000000 0.85
-12.190075 59.842188 632.000000 0.85
-12.170787 60.853937 631.000000 0.85
-12.170787 61.960372 631.000000 0.85
-12.170787 63.066807 631.000000 0.85
-12.170787 64.173242 631.000000 0.85
-12.170787 65.279677 631.000000 0.85
-12.170787 66.386113 631.000000 0.85
-12.190075 67.599509 632.000000 0.85
-12.228652 68.925127 634.000000 0.85
-12.228652 70.036823 634.000000 0.85
-12.228652 71.148518 634.000000 0.85
-12.247940 72.374189 635.000000 0.85
-12.247940 73.487638 635.000000 0.85
-12.247940 74.601087 635.000000 0.85
-12.267228 75.833772 636.000000 0.85
-12.267228 76.948974 636.000000 0.85
-12.958092 47.944941 739.000000 0.85
-11.344906 43.110644 647.000000 0.85
-11.344906 44.245134 647.000000 0.85
-11.327372 45.309486 646.000000 0.85
-11.292302 46.298439 644.000000 0.85
-11.274768 47.354024 643.000000 0.85
-11.257233 48.406102 642.000000 0.85
-11.239698 49.454673 641.000000 0.85
-11.187095 50.341925 638.000000 0.85
-11.169560 51.379975 637.000000 0.85
-11.169560 52.496931 637.000000 0.85
-11.152025 53.529721 636.000000 0.85
-11.152025 54.644924 636.000000 0.85
-11.152025 55.760126 636.000000 0.85
-11.134491 56.785902 635.000000 0.85
-11.116956 57.808171 634.000000 0.85
-11.081887 58.734000 632.000000 0.85
-11.081887 59.842188 632.000000 0.85
-11.081887 60.950377 632.000000 0.85
-11.064352 61.960372 631.000000 0.85
-11.064352 63.066807 631.000000 0.85
-11.064352 64.173242 631.000000 0.85
-11.064352 65.279677 631.000000 0.85
-11.081887 66.491320 632.000000 0.85
-11.081887 67.599509 632.000000 0.85
-11.116956 68.925127 634.000000 0.85
-11.134491 70.147291 635.000000 0.85
-11.134491 71.260740 635.000000 0.85
-11.134491 72.374189 635.000000 0.85
-11.152025 73.603367 636.000000 0.85
-11.152025 74.718569 636.000000 0.85
-11.152025 75.833772 636.000000 0.85
-11.152025 76.948974 636.000000 0.85
-11.662283 46.649132 739.000000 0.85
-11.662283 47.944941 739.000000 0.85
-10.210416 43.110644 647.000000 0.85
-10.210416 44.245134 647.000000 0.85
-10.194634 45.309486 646.000000 0.85
-10.194634 46.442223 646.000000 0.85
-10.147291 47.354024 643.000000 0.85
-10.131510 48.406102 642.000000 0.85
-10.115729 49.454673 641.000000 0.85
-10.099947 50.499737 640.000000 0.85
-10.068385 51.460635 638.000000 0.85
-10.052604 52.496931 637.000000 0.85
-10.036823 53.529721 636.000000 0.85
-10.036823 54.644924 636.000000 0.85
-10.036823 55.760126 636.000000 0.85
-10.021042 56.785902 635.000000 0.85
-10.005260 57.808171 634.000000 0.85
-9.973698 58.734000 632.000000 0.85
-9.973698 59.842188 632.000000 0.85
-9.973698 60.950377 632.000000 0.85
-9.973698 62.058566 632.000000 0.85
-9.957917 63.066807 631.000000 0.85
-9.957917 64.173242 631.000000 0.85
-9.973698 65.383132 632.000000 0.85
-9.973698 66.491320 632.000000 0.85
-10.005260 67.813432 634.000000 0.85
-10.005260 68.925127 634.000000 0.85
-10.021042 70.147291 635.000000 0.85
-10.021042 71.260740 635.000000 0.85
-10.021042 72.374189 635.000000 0.85
-10.036823 73.603367 636.000000 0.85
-10.036823 74.718569 636.000000 0.85
-10.036823 75.833772 636.000000 0.85
-10.036823 76.948974 636.000000 0.85
-10.366474 46.649132 739.000000 0.85
-9.075925 41.976153 647.000000 0.85
-9.075925 43.110644 647.000000 0.85
-9.075925 44.245134 647.000000 0.85
-9.061897 45.309486 646.000000 0.85
-9.061897 46.442223 646.000000 0.85
-9.033842 47.427670 644.000000 0.85
-9.005786 48.406102 642.000000 0.85
-8.991759 49.454673 641.000000 0.85
-8.977731 50.499737 640.000000 0.85
-8.977731 51.621953 640.000000 0.85
-8.949676 52.579344 638.000000 0.85
-8.935648 53.613887 637.000000 0.85
-8.921620 54.644924 636.000000 0.85
-8.921620 55.760126 636.000000 0.85
-8.921620 56.875329 636.000000 0.85
-8.907592 57.899351 635.000000 0.85
-8.893565 58.919867 634.000000 0.85
-8.893565 60.031562 634.000000 0.85
-8.893565 61.143258 634.000000 0.85
-8.893565 62.254954 634.000000 0.85
-8.865509 63.166754 632.000000 0.85
-8.865509 64.274943 632.000000 0.85
-8.865509 65.383132 632.000000 0.85
-8.893565 66.701736 634.000000 0.85
-8.893565 67.813432 634.000000 0.85
-8.907592 69.033842 635.000000 0.85
-8.907592 70.147291 635.000000 0.85
-8.921620 71.372962 636.000000 0.85
-8.921620 72.488164 636.000000 0.85
-8.921620 73.603367 636.000000 0.85
-8.921620 74.718569 636.000000 0.85
-8.935648 75.953007 637.000000 0.85
-9.132036 46.964755 744.000000 0.85
-7.941434 41.976153 647.000000 0.85
-7.941434 43.110644 647.000000 0.85
-7.941434 44.245134 647.000000 0.85
-7.929160 45.309486 646.000000 0.85
-7.929160 46.442223 646.000000 0.85
-7.904612 47.427670 644.000000 0.85
-7.892337 48.481501 643.000000 0.85
-7.867789 49.454673 641.000000 0.85
-7.867789 50.578643 641.000000 0.85
-7.855515 51.621953 640.000000 0.85
-7.830966 52.579344 638.000000 0.85
-7.818692 53.613887 637.000000 0.85
-7.818692 54.730843 637.000000 0.85
-7.806418 55.760126 636.000000 0.85
-7.794143 56.785902 635.000000 0.85
-7.794143 57.899351 635.000000 0.85
-7.781869 58.919867 634.000000 0.85
-7.781869 60.031562 634.000000 0.85
-7.781869 61.143258 634.000000 0.85
-7.781869 62.254954 634.000000 0.85
-7.781869 63.366649 634.000000 0.85
-7.781869 64.478345 634.000000 0.85
-7.781869 65.590040 634.000000 0.85
-7.794143 66.806944 635.000000 0.85
-7.794143 67.920393 635.000000 0.85
-7.794143 69.033842 635.000000 0.85
-7.806418 70.257759 636.000000 0.85
-7.806418 71.372962 636.000000 0.85
-7.806418 72.488164 636.000000 0.85
-7.806418 73.603367 636.000000 0.85
-7.818692 74.836051 637.000000 0.85
-7.818692 75.953007 637.000000 0.85
-7.827459 46.964755 744.000000 0.85
-6.806944 41.976153 647.000000 0.85
-6.806944 43.110644 647.000000 0.85
-6.806944 44.245134 647.000000 0.85
-6.806944 45.379625 647.000000 0.85
-6.796423 46.442223 646.000000 0.85
-6.775381 47.427670 644.000000 0.85
-6.764861 48.481501 643.000000 0.85
-6.754340 49.531825 642.000000 0.85
-6.743819 50.578643 641.000000 0.85
-6.733298 51.621953 640.000000 0.85
-6.712257 52.579344 638.000000 0.85
-6.701736 53.613887 637.000000 0.85
-6.701736 54.730843 637.000000 0.85
-6.691215 55.760126 636.000000 0.85
-6.680694 56.785902 635.000000 0.85
-6.680694 57.899351 635.000000 0.85
-6.680694 59.012800 635.000000 0.85
-6.680694 60.126249 635.000000 0.85
-6.670174 61.143258 634.000000 0.85
-6.670174 62.254954 634.000000 0.85
-6.670174 63.366649 634.000000 0.85
-6.670174 64.478345 634.000000 0.85
-6.680694 65.693495 635.000000 0.85
-6.680694 66.806944 635.000000 0.85
-6.691215 68.027354 636.000000 0.85
-6.691215 69.142557 636.000000 0.85
-6.691215 70.257759 636.000000 0.85
-6.691215 71.372962 636.000000 0.85
-6.691215 72.488164 636.000000 0.85
-6.691215 73.603367 636.000000 0.85
-6.701736 74.836051 637.000000 0.85
-6.701736 75.953007 637.000000 0.85
-6.522883 46.964755 744.000000 0.85
-5.681220 42.041031 648.000000 0.85
-5.681220 43.177275 648.000000 0.85
-5.681220 44.313519 648.000000 0.85
-5.681220 45.449763 648.000000 0.85
-5.672453 46.514115 647.000000 0.85
-5.646151 47.427670 644.000000 0.85
-5.628617 48.406102 642.000000 0.85
-5.628617 49.531825 642.000000 0.85
-5.619849 50.578643 641.000000 0.85
-5.611082 51.621953 640.000000 0.85
-5.611082 52.744170 640.000000 0.85
-5.584780 53.613887 637.000000 0.85
-5.584780 54.730843 637.000000 0.85
-5.576013 55.760126 636.000000 0.85
-5.567245 56.785902 635.000000 0.85
-5.567245 57.899351 635.000000 0.85
-5.567245 59.012800 635.000000 0.85
-5.567245 60.126249 635.000000 0.85
-5.558478 61.143258 634.000000 0.85
-5.558478 62.254954 634.000000 0.85
-5.567245 63.466597 635.000000 0.85
-5.567245 64.580046 635.000000 0.85
-5.567245 65.693495 635.000000 0.85
-5.567245 66.806944 635.000000 0.85
-5.576013 68.027354 636.000000 0.85
-5.576013 69.142557 636.000000 0.85
-5.576013 70.257759 636.000000 0.85
-5.576013 71.372962 636.000000 0.85
-5.576013 72.488164 636.000000 0.85
-5.584780 73.719095 637.000000 0.85
-5.584780 74.836051 637.000000 0.85
-5.584780 75.953007 637.000000 0.85
-5.218306 45.660179 744.000000 0.85
-5.218306 46.964755 744.000000 0.85
-4.544976 42.041031 648.000000 0.85
-4.544976 43.177275 648.000000 0.85
-4.544976 44.313519 648.000000 0.85
-4.544976 45.449763 648.000000 0.85
-4.537962 46.514115 647.000000 0.85
-4.516921 47.427670 644.000000 0.85
-4.502893 48.406102 642.000000 0.85
-4.502893 49.531825 642.000000 0.85
-4.495879 50.578643 641.000000 0.85
-4.488866 51.621953 640.000000 0.85
-4.488866 52.744170 640.000000 0.85
-4.474838 53.698054 638.000000 0.85
-4.467824 54.730843 637.000000 0.85
-4.460810 55.760126 636.000000 0.85
-4.460810 56.875329 636.000000 0.85
-4.453796 57.899351 635.000000 0.85
-4.453796 59.012800 635.000000 0.85
-4.453796 60.126249 635.000000 0.85
-4.453796 61.239698 635.000000 0.85
-4.453796 62.353147 635.000000 0.85
-4.453796 63.466597 635.000000 0.85
-4.453796 64.580046 635.000000 0.85
-4.453796 65.693495 635.000000 0.85
-4.453796 66.806944 635.000000 0.85
-4.460810 68.027354 636.000000 0.85
-4.460810 69.142557 636.000000 0.85
-4.460810 70.257759 636.000000 0.85
-4.460810 71.372962 636.000000 0.85
-4.460810 72.488164 636.000000 0.85
-4.467824 73.719095 637.000000 0.85
-4.467824 74.836051 637.000000 0.85
-4.467824 75.953007 637.000000 0.85
-3.929511 44.534456 747.000000 0.85
-3.929511 45.844292 747.000000 0.85
-3.408732 40.904787 648.000000 0.85
-3.408732 42.041031 648.000000 0.85
-3.408732 43.177275 648.000000 0.85
-3.408732 44.313519 648.000000 0.85
-3.408732 45.449763 648.000000 0.85
-3.403472 46.514115 647.000000 0.85
-3.398211 47.574961 646.000000 0.85
-3.377170 48.406102 642.000000 0.85
-3.377170 49.531825 642.000000 0.85
-3.371910 50.578643 641.000000 0.85
-3.371910 51.702613 641.000000 0.85
-3.366649 52.744170 640.000000 0.85
-3.356128 53.698054 638.000000 0.85
-3.350868 54.730843 637.000000 0.85
-3.345608 55.760126 636.000000 0.85
-3.345608 56.875329 636.000000 0.85
-3.340347 57.899351 635.000000 0.85
-3.340347 59.012800 635.000000 0.85
-3.340347 60.126249 635.000000 0.85
-3.340347 61.239698 635.000000 0.85
-3.340347 62.353147 635.000000 0.85
-3.340347 63.466597 635.000000 0.85
-3.340347 64.580046 635.000000 0.85
-3.345608 65.796949 636.000000 0.85
-3.345608 66.912151 636.000000 0.85
-3.345608 68.027354 636.000000 0.85
-3.345608 69.142557 636.000000 0.85
-3.345608 70.257759 636.000000 0.85
-3.345608 71.372962 636.000000 0.85
-3.350868 72.602139 637.000000 0.85
-3.350868 73.719095 637.000000 0.85
-3.350868 74.836051 637.000000 0.85
-3.350868 75.953007 637.000000 0.85
-2.619674 43.224619 747.000000 0.85
-2.616167 44.474838 746.000000 0.85
-2.275995 39.829914 649.000000 0.85
-2.272488 40.904787 648.000000 0.85
-2.272488 42.041031 648.000000 0.85
-2.275995 43.243907 649.000000 0.85
-2.272488 44.313519 648.000000 0.85
-2.268981 45.379625 647.000000 0.85
-2.265474 46.442223 646.000000 0.85
-2.258460 47.427670 644.000000 0.85
-2.251447 48.406102 642.000000 0.85
-2.251447 49.531825 642.000000 0.85
-2.247940 50.578643 641.000000 0.85
-2.247940 51.702613 641.000000 0.85
-2.244433 52.744170 640.000000 0.85
-2.237419 53.698054 638.000000 0.85
-2.237419 54.816763 638.000000 0.85
-2.233912 55.847799 637.000000 0.85
-2.230405 56.875329 636.000000 0.85
-2.230405 57.990531 636.000000 0.85
-2.230405 59.105734 636.000000 0.85
-2.230405 60.220936 636.000000 0.85
-2.226898 61.239698 635.000000 0.85
-2.226898 62.353147 635.000000 0.85
-2.226898 63.466597 635.000000 0.85
-2.230405 64.681746 636.000000 0.85
-2.230405 65.796949 636.000000 0.85
-2.230405 66.912151 636.000000 0.85
-2.230405 68.027354 636.000000 0.85
-2.230405 69.142557 636.000000 0.85
-2.230405 70.257759 636.000000 0.85
-2.233912 71.485183 637.000000 0.85
-2.233912 72.602139 637.000000 0.85
-2.233912 73.719095 637.000000 0.85
-2.233912 74.836051 637.000000 0.85
-1.308083 43.166754 746.000000 0.85
-1.136244 38.632299 648.000000 0.85
-1.136244 39.768543 648.000000 0.85
-1.137998 40.967912 649.000000 0.85
-1.137998 42.105909 649.000000 0.85
-1.137998 43.243907 649.000000 0.85
-1.136244 44.313519 648.000000 0.85
-1.134491 45.379625 647.000000 0.85
-1.129230 46.298439 644.000000 0.85
-1.129230 47.427670 644.000000 0.85
-1.125723 48.406102 642.000000 0.85
-1.125723 49.531825 642.000000 0.85
-1.123970 50.578643 641.000000 0.85
-1.122216 51.621953 640.000000 0.85
-1.122216 52.744170 640.000000 0.85
-1.118709 53.698054 638.000000 0.85
-1.118709 54.816763 638.000000 0.85
-1.116956 55.847799 637.000000 0.85
-1.115203 56.875329 636.000000 0.85
-1.115203 57.990531 636.000000 0.85
-1.115203 59.105734 636.000000 0.85
-1.115203 60.220936 636.000000 0.85
-1.115203 61.336139 636.000000 0.85
-1.115203 62.451341 636.000000 0.85
-1.115203 63.566544 636.000000 0.85
-1.115203 64.681746 636.000000 0.85
-1.115203 65.796949 636.000000 0.85
-1.115203 66.912151 636.000000 0.85
-1.115203 68.027354 636.000000 0.85
-1.116956 69.251271 637.000000 0.85
-1.116956 70.368227 637.000000 0.85
-1.116956 71.485183 637.000000 0.85
-1.118709 72.716114 638.000000 0.85
-1.116956 73.719095 637.000000 0.85
-1.116956 74.836051 637.000000 0.85
0.000000 43.166754 746.000000 0.85
0.000000 38.632299 648.000000 0.85
0.000000 39.768543 648.000000 0.85
0.000000 40.967912 649.000000 0.85
0.000000 42.105909 649.000000 0.85
0.000000 43.243907 649.000000 0.85
0.000000 44.313519 648.000000 0.85
0.000000 45.449763 648.000000 0.85
0.000000 46.298439 644.000000 0.85
0.000000 47.354024 643.000000 0.85
0.000000 48.406102 642.000000 0.85
0.000000 49.531825 642.000000 0.85
0.000000 50.578643 641.000000 0.85
0.000000 51.621953 640.000000 0.85
0.000000 52.744170 640.000000 0.85
0.000000 53.698054 638.000000 0.85
0.000000 54.816763 638.000000 0.85
0.000000 55.847799 637.000000 0.85
0.000000 56.964755 637.000000 0.85
0.000000 57.990531 636.000000 0.85
0.000000 59.105734 636.000000 0.85
0.000000 60.220936 636.000000 0.85
0.000000 61.336139 636.000000 0.85
0.000000 62.451341 636.000000 0.85
0.000000 63.566544 636.000000 0.85
0.000000 64.681746 636.000000 0.85
0.000000 65.796949 636.000000 0.85
0.000000 66.912151 636.000000 0.85
0.000000 68.134315 637.000000 0.85
0.000000 69.251271 637.000000 0.85
0.000000 70.368227 637.000000 0.85
0.000000 71.597405 638.000000 0.85
0.000000 72.716114 638.000000 0.85
0.000000 73.719095 637.000000 0.85
0.000000 74.836051 637.000000 0.85
1.309837 43.224619 747.000000 0.85
1.308083 44.474838 746.000000 0.85
1.137998 39.829914 649.000000 0.85
1.137998 40.967912 649.000000 0.85
1.137998 42.105909 649.000000 0.85
1.136244 43.177275 648.000000 0.85
1.136244 44.313519 648.000000 0.85
1.134491 45.379625 647.000000 0.85
1.129230 46.298439 644.000000 0.85
1.127477 47.354024 643.000000 0.85
1.125723 48.406102 642.000000 0.85
1.125723 49.531825 642.000000 0.85
1.123970 50.578643 641.000000 0.85
1.122216 51.621953 640.000000 0.85
1.122216 52.744170 640.000000 0.85
1.122216 53.866386 640.000000 0.85
1.118709 54.816763 638.000000 0.85
1.116956 55.847799 637.000000 0.85
1.116956 56.964755 637.000000 0.85
1.115203 57.990531 636.000000 0.85
1.115203 59.105734 636.000000 0.85
1.115203 60.220936 636.000000 0.85
1.115203 61.336139 636.000000 0.85
1.115203 62.451341 636.000000 0.85
1.115203 63.566544 636.000000 0.85
1.115203 64.681746 636.000000 0.85
1.115203 65.796949 636.000000 0.85
1.115203 66.912151 636.000000 0.85
1.116956 68.134315 637.000000 0.85
1.116956 69.251271 637.000000 0.85
1.118709 70.478695 638.000000 0.85
1.122216 71.821848 640.000000 0.85
1.122216 72.944065 640.000000 0.85
1.118709 73.834824 638.000000 0.85
1.118709 74.953533 638.000000 0.85
2.619674 43.224619 747.000000 0.85
2.616167 44.474838 746.000000 0.85
2.275995 39.829914 649.000000 0.85
2.275995 40.967912 649.000000 0.85
2.275995 42.105909 649.000000 0.85
2.272488 43.177275 648.000000 0.85
2.268981 44.245134 647.000000 0.85
2.268981 45.379625 647.000000 0.85
2.258460 46.298439 644.000000 0.85
2.258460 47.427670 644.000000 0.85
2.251447 48.406102 642.000000 0.85
2.251447 49.531825 642.000000 0.85
2.247940 50.578643 641.000000 0.85
2.247940 51.702613 641.000000 0.85
